1.6269492 0.10697968 0.94668734
1.6289788 0.1071386 0.94648039
1.6309605 0.10672504 0.94626033
1.6323937 0.10663009 0.94620788
1.6251922 0.10847618 0.94690681
1.6271195 0.10889561 0.94674116
1.6289352 0.10930843 0.94661367
1.6311419 0.10929105 0.94636738
1.6323909 0.10933008 0.94627732
1.6253572 0.11133999 0.94691837
1.6269726 0.11120334 0.94670987
1.629037 0.11102799 0.94650334
1.6309808 0.11092798 0.94632369
1.632308 0.11090825 0.94628423
1.6236446 0.11254349 0.94696748
1.6251217 0.11261511 0.94693065
1.6270992 0.11283541 0.94679844
1.6290002 0.11287457 0.94661313
1.6310008 0.11292863 0.94642925
1.6323255 0.11271625 0.94645047
1.6256087 0.11435001 0.94697666
1.6269546 0.11481793 0.94692284
1.6290823 0.11542708 0.94669169
1.6310933 0.11515296 0.94649023
1.6322669 0.11503418 0.94645286
1.6254256 0.11672337 0.94691533
1.6270446 0.11700296 0.94685876
1.6289085 0.11679842 0.94669276
1.6309781 0.11686321 0.94654328
1.6322348 0.11702929 0.94654906
1.6255884 0.118066 0.9469775
1.6274258 0.11893051 0.94690913
1.6291655 0.11891139 0.94675893
1.6308289 0.1190519 0.94670361
1.6321753 0.11925668 0.94672036
1.6273829 0.12132859 0.94688094
1.6289617 0.12107784 0.9467693
1.631029 0.12078259 0.94657719
1.6322027 0.12044461 0.94652921
1.6272178 0.12298246 0.94695795
1.629014 0.12288167 0.9467845
1.6310753 0.12305047 0.94671786
1.6321441 0.1228705 0.94673848
1.627826 0.125945 0.94697797
1.6292489 0.12529662 0.94681978
1.6309599 0.12532118 0.94667041
1.6320919 0.12528601 0.94669503
1.6275175 0.12660857 0.94695884
1.6289246 0.12679912 0.94684982
1.6309854 0.12650318 0.94673365
1.6320994 0.127242 0.94671053
1.6278269 0.1289835 0.94697249
1.6293082 0.12915388 0.94690323
1.6310024 0.1288721 0.94678611
1.632031 0.12900099 0.94683099
1.6272854 0.13142037 0.94694763
1.6291097 0.1313071 0.94681507
1.6310178 0.13110287 0.94670546
1.6320029 0.13031501 0.94672197
1.627893 0.133902 0.94699502
1.6290768 0.13300493 0.94688094
1.6311597 0.133406 0.94678235
1.62784 0.13574199 0.94696599
1.6292504 0.135175 0.94688416
1.6309305 0.13505501 0.94674474
1.6274202 0.1365703 0.94694507
1.6289362 0.13661759 0.94684631
1.6309319 0.13668126 0.94675207
1.629342 0.13896345 0.94691676
1.630852 0.13892236 0.94685614
1.6279047 0.1412525 0.94696599
1.6290654 0.14100584 0.94681948
1.6309004 0.14089683 0.94672751
1.6293626 0.14278343 0.94691288
1.6308776 0.14311638 0.94683951
1.6291596 0.14565901 0.94687968
1.6308672 0.14505675 0.94684684
1.627947 0.146982 0.94699502
1.6291927 0.14724094 0.9469111
1.6308351 0.14681733 0.94684571
1.62791 0.14884999 0.94697303
1.6292228 0.14908488 0.94690061
1.6307807 0.14895405 0.94684613
1.6253053 0.15166111 0.9469679
1.6272761 0.15131629 0.94687611
1.6289761 0.15092115 0.94678003
1.6307818 0.15075941 0.94671351
1.608196 0.153963 0.94695902
1.611665 0.153971 0.94696802
1.615131 0.15390299 0.94697201
1.6189401 0.15385202 0.94696093
1.620468 0.153521 0.94697797
1.6233566 0.15381022 0.94662404
1.6250857 0.15310684 0.94673061
1.626911 0.15313232 0.94657385
1.6290284 0.15314627 0.9463945
1.6307622 0.1529969 0.9463377
1.579868 0.154392 0.94698
1.580139 0.15433 0.94696999
1.5873317 0.15487671 0.9469018
1.588058 0.154843 0.946971
1.5910314 0.15505745 0.9468109
1.5957837 0.15484333 0.94613171
1.5969696 0.15468942 0.94649905
1.5989083 0.15451908 0.94671655
1.600994 0.15464762 0.94652855
1.603026 0.15455462 0.94656181
1.6050208 0.1545224 0.94647974
1.6071255 0.15462252 0.94647759
1.6090212 0.15477045 0.94652414
1.6110098 0.15466687 0.94665188
1.6129738 0.15470514 0.94664192
1.6149766 0.15460813 0.94673121
1.616997 0.15426162 0.94689834
1.618911 0.1546682 0.9462648
1.6209968 0.15439846 0.94641858
1.6228911 0.15444265 0.94627172
1.6249542 0.15425979 0.94627208
1.6266577 0.15411568 0.94618833
1.6286602 0.15414722 0.94605607
1.631493 0.15429799 0.94613898
1.5746917 0.15727721 0.94649661
1.5950561 -0.0061843931 0.94708073
1.5965489 -0.0065305312 0.9470194
1.5857861 -0.0040497398 0.94741225
1.5870529 -0.0043349797 0.94735599
1.5890213 -0.0047684503 0.94731176
1.5909963 -0.0052129631 0.94723696
1.5930363 -0.0056772246 0.94711101
1.594496 -0.0056098443 0.94709444
1.5968349 -0.0050954116 0.94702858
1.598139 -0.0042059999 0.94701803
1.5774366 -0.0021089159 0.94774866
1.5789998 -0.0024508899 0.94772321
1.5810421 -0.0029089905 0.9476434
1.5830227 -0.0033567552 0.94754887
1.5848036 -0.003734509 0.94747007
1.5868821 -0.0031366076 0.94736248
1.58901 -0.0029875108 0.94732261
1.5909239 -0.0031665505 0.94726467
1.5929729 -0.0033531329 0.94719589
1.5950688 -0.003059885 0.94714189
1.5968688 -0.0029472276 0.94709587
1.5986774 -0.0029082499 0.94706523
1.5717063 -0.00043666665 0.94796169
1.5730848 -0.0010541474 0.947972
1.5750421 -0.0014916449 0.94789636
1.5765882 -0.0017454595 0.94781309
1.5789174 -0.0011565626 0.9477365
1.5809497 -0.0009326596 0.94768488
1.5829252 -0.0012084055 0.94757688
1.5849109 -0.0014558 0.94747353
1.5869853 -0.00095403451 0.94742209
1.5888672 -0.00093961909 0.94740009
1.5911093 -0.00060620002 0.94727749
1.5930701 -0.0007748775 0.94720358
1.5948689 -0.00093633332 0.94712031
1.5969206 -0.0010009999 0.94706202
1.598483 -0.001224 0.94702137
1.571726 0.00060199999 0.94796997
1.5732584 0.00081246666 0.94796884
1.5749172 0.00074110343 0.94793397
1.576982 0.00072950014 0.94784302
1.5790095 0.00095665525 0.9477818
1.5811504 0.0013472778 0.94771737
1.5830649 0.0013206411 0.947568
1.5850664 0.0011098393 0.94745123
1.5870081 0.0010273489 0.94734156
1.5889592 0.00057499995 0.94729519
1.5909207 0.00088358956 0.94726574
1.5928479 0.00092695653 0.94719803
1.5950441 0.00087526673 0.94710827
1.5970019 0.0011691923 0.94713104
1.5991129 0.0014164501 0.947083
1.600412 0.0011442 0.94702357
1.5733814 0.0037498181 0.94793051
1.5750704 0.0034907432 0.94787127
1.5769358 0.0031379261 0.94783652
1.5790051 0.0028939997 0.94773
1.5810146 0.0026293257 0.94765472
1.5828873 0.0028489113 0.94759315
1.5848131 0.0029552106 0.94746673
1.5871677 0.0030288498 0.94740117
1.5889965 0.002976862 0.9473803
1.5910819 0.0034040385 0.94735962
1.5929825 0.0030550347 0.94727749
1.595055 0.0029308782 0.94717896
1.5970864 0.0029663334 0.94711864
1.5986274 0.0028970004 0.94707096
1.5717781 0.0043655001 0.94796395
1.5731561 0.0046381908 0.94794101
1.5750136 0.0049157306 0.9479242
1.576985 0.0050614998 0.9478265
1.5791236 0.0050084544 0.94780153
1.5809083 0.0049904077 0.94774061
1.5830044 0.0053895004 0.94770211
1.5850953 0.0050114691 0.94752991
1.5869098 0.0049605789 0.94741189
1.5890538 0.0050719515 0.94734913
1.5909312 0.0049739415 0.94726306
1.5929936 0.0046342863 0.94715059
1.5949491 0.0049842997 0.94712412
1.596828 0.0049006087 0.94707268
1.5987079 0.0050057997 0.94702941
1.6007044 0.0058772 0.9470402
1.602088 0.0055689998 0.94702703
1.57187 0.006238 0.94799602
1.5732328 0.0070188004 0.94798404
1.5754242 0.0072062002 0.94796354
1.577106 0.0069743651 0.94790721
1.5789642 0.006942105 0.94778562
1.5809845 0.0070440969 0.94770503
1.5829767 0.0069676335 0.94758701
1.5850199 0.0066708671 0.94743663
1.5870131 0.00703038 0.94739157
1.5888288 0.0069765002 0.94736332
1.5911392 0.0070694499 0.94726944
1.593002 0.0069699003 0.94721216
1.5949187 0.0070571178 0.94724298
1.5971141 0.0071219052 0.94713449
1.5988516 0.0069504576 0.94706464
1.600057 0.0060089999 0.94700199
1.5692621 0.0097881434 0.94794607
1.5709709 0.0093440628 0.94791669
1.5731344 0.009122232 0.94790834
1.574993 0.0088041117 0.94789398
1.5769699 0.0087596681 0.94784474
1.5789692 0.0089187939 0.9477933
1.5810304 0.0090936003 0.94769812
1.5831903 0.0090824086 0.94765794
1.5849062 0.0088947313 0.94752604
1.5869908 0.0090148021 0.94744039
1.589114 0.0091341035 0.94728386
1.5908444 0.0091480911 0.94716251
1.593057 0.0092514995 0.94710118
1.5949806 0.0089320876 0.94713533
1.5968814 0.0087130405 0.94708514
1.5988066 0.008986637 0.94705236
1.6003942 0.0088836672 0.94702625
1.573668 0.0108 0.94799054
1.5750918 0.0107635 0.9479419
1.5769482 0.010814789 0.94791657
1.5791136 0.011033251 0.94786245
1.5810603 0.011174383 0.94773585
1.5829022 0.011186512 0.94763082
1.5850388 0.011231604 0.947514
1.5869926 0.010756955 0.94739717
1.5889568 0.010619211 0.9473303
1.5910094 0.011034067 0.94731188
1.5930673 0.011178242 0.94718266
1.5950011 0.011163787 0.94714892
1.5969723 0.010717634 0.94710821
1.5990264 0.011155052 0.94708401
1.6008465 0.011414202 0.94704503
1.6029274 0.011094 0.94704217
1.5734663 0.013713416 0.94794369
1.5750347 0.013328902 0.94790691
1.5769974 0.013101289 0.94784588
1.5789833 0.012674593 0.94776416
1.5810261 0.012763534 0.9476859
1.582972 0.012905333 0.94765729
1.585089 0.013325655 0.94757372
1.5870026 0.013031516 0.94746327
1.5889115 0.01259274 0.94739658
1.590986 0.01313062 0.94737101
1.5929452 0.013188696 0.94728577
1.5950605 0.013320097 0.94719297
1.5970768 0.012955182 0.94713306
1.5987748 0.012943667 0.94710171
1.6005009 0.012813858 0.94703692
1.603667 0.012624 0.947007
1.5710874 0.014400001 0.947999
1.5732791 0.014725668 0.94797754
1.5750433 0.014909002 0.94795829
1.5770012 0.015316535 0.94789541
1.5789963 0.014882931 0.94781405
1.5810152 0.014809002 0.94771087
1.5830772 0.015084967 0.94769746
1.5849235 0.015254529 0.94761693
1.5869709 0.015221579 0.94747478
1.5890824 0.014902731 0.94741517
1.5910183 0.01488541 0.94733715
1.5929272 0.014614707 0.94720316
1.5949177 0.015065063 0.94719404
1.5969083 0.014820335 0.94714803
1.5989232 0.014886077 0.94706625
1.6011385 0.0150482 0.94705677
1.6031619 0.01559921 0.94706136
1.6047549 0.015488546 0.94703341
1.6066254 0.015294249 0.94702256
1.573807 0.016489999 0.94797802
1.5752161 0.017137704 0.94795048
1.5772263 0.017439971 0.94787949
1.5790004 0.01708002 0.94782621
1.5809387 0.016964095 0.94769812
1.5829653 0.016756374 0.9476229
1.5850869 0.016786756 0.94756728
1.5869991 0.017039642 0.9475022
1.588802 0.016813176 0.94746071
1.5909996 0.016725134 0.94738692
1.5931786 0.016826211 0.94728225
1.5951434 0.017618155 0.94727999
1.5969971 0.017235002 0.94723856
1.599 0.016932629 0.9471547
1.6007617 0.016496751 0.94708508
1.6028404 0.016217334 0.94707263
1.623031 0.016701 0.94702899
1.573874 0.018774999 0.94798601
1.5749727 0.018686404 0.94788772
1.5769913 0.018907718 0.94784617
1.5790321 0.018866464 0.94774938
1.5809407 0.018910734 0.94755989
1.5830283 0.018632689 0.94755948
1.5848442 0.01915204 0.94770366
1.5870287 0.019550964 0.9476794
1.5890622 0.019147743 0.94767714
1.5910383 0.019078204 0.94756424
1.5929083 0.019012438 0.9473986
1.5949855 0.019018343 0.94708854
1.5969661 0.018943248 0.947065
1.5989387 0.019206349 0.94706249
1.6003637 0.019020667 0.94703031
1.6034448 0.018885501 0.94703776
1.604841 0.019062094 0.94704849
1.6068836 0.018880645 0.94707638
1.6087679 0.019277286 0.94704735
1.6109121 0.019374875 0.94704658
1.6125535 0.019014288 0.94704932
1.57384 0.020678001 0.94797999
1.5754976 0.020302169 0.94794488
1.576878 0.020780727 0.94793391
1.5792304 0.021342421 0.94794738
1.5811359 0.021099458 0.94781405
1.5830801 0.020996016 0.94765455
1.585004 0.020959381 0.94755691
1.587024 0.02109397 0.94748533
1.5890306 0.02086759 0.94746786
1.5909871 0.021000464 0.94739521
1.5931005 0.0210567 0.94736332
1.594892 0.020922206 0.94726348
1.5969874 0.020733869 0.94719273
1.5990605 0.020905167 0.94712472
1.600971 0.020972393 0.94713485
1.6029186 0.021253131 0.94709253
1.6051993 0.020629143 0.94703424
1.6069388 0.020456875 0.94702089
1.619823 0.021787999 0.94701099
1.6210325 0.021525666 0.94702739
1.6229697 0.021428231 0.94702637
1.626128 0.021111 0.94700599
1.5732144 0.023830667 0.94797367
1.5753313 0.023606217 0.94793755
1.576975 0.023032602 0.94786912
1.5790159 0.023062831 0.94783241
1.5809672 0.022904353 0.94773161
1.5828966 0.022967 0.94766164
1.5851011 0.023013897 0.94755995
1.5869083 0.022914685 0.94753158
1.5888712 0.022649962 0.94747335
1.591092 0.02309054 0.9474504
1.5928724 0.022924997 0.94742042
1.5950962 0.023402123 0.94730788
1.5970122 0.023179673 0.94721514
1.5988725 0.023067351 0.94713777
1.6010352 0.023097616 0.94709027
1.6026058 0.023077589 0.94705701
1.6052184 0.022874286 0.94702208
1.6068087 0.023261113 0.94704503
1.6092374 0.023747999 0.9470585
1.610648 0.023816003 0.94703805
1.6130805 0.023275251 0.94702077
1.6146885 0.0233474 0.9470154
1.6172508 0.022782201 0.94701177
1.6190643 0.022552168 0.94702256
1.620715 0.022312 0.94703799
1.6225979 0.0229505 0.94703746
1.5719831 0.024328001 0.94799101
1.5732061 0.024271999 0.94796699
1.5752701 0.024814 0.94796389
1.577011 0.024963772 0.94793224
1.5789949 0.024855385 0.94785821
1.5808883 0.024674138 0.94781351
1.5829798 0.025039103 0.9477331
1.5849978 0.025237478 0.94766319
1.587098 0.025332579 0.94754398
1.589087 0.025135553 0.94748211
1.5910215 0.02511291 0.94741488
1.5929908 0.024882505 0.94735813
1.5949557 0.024988359 0.94731522
1.5970542 0.024863936 0.94725776
1.5990145 0.024941795 0.94721025
1.6010509 0.024942501 0.94718426
1.6028422 0.025001373 0.94711977
1.6049941 0.025084827 0.9471156
1.6069541 0.024969384 0.94710475
1.608943 0.024598518 0.94707477
1.6109332 0.024466749 0.94703865
1.612253 0.024166999 0.94700801
1.62079 0.025718 0.94700199
1.6224343 0.025365001 0.94703329
1.624288 0.024948999 0.94700599
1.627198 0.025855666 0.94701308
1.5756097 0.026091335 0.94797635
1.5771443 0.027540499 0.94790107
1.579022 0.027261054 0.94784218
1.5810449 0.027044583 0.94778442
1.5830804 0.027103946 0.94767243
1.5849943 0.026923804 0.94756979
1.5869033 0.02691 0.9475556
1.588984 0.026930762 0.94750857
1.5909326 0.026861826 0.94745696
1.5930375 0.027036048 0.94745141
1.5950886 0.027077056 0.94742543
1.5969238 0.026981821 0.94739443
1.5990453 0.027187807 0.94728935
1.6009263 0.027048094 0.9472093
1.6028844 0.026748026 0.94714671
1.6050324 0.027276238 0.94706637
1.6067588 0.02701637 0.94705403
1.6088192 0.027037501 0.94703197
1.6108971 0.027238499 0.94701749
1.613032 0.0271674 0.94702214
1.6145235 0.0271015 0.94701397
1.6176848 0.027578998 0.94706202
1.6189673 0.027525766 0.94706291
1.6211154 0.027281936 0.94704348
1.622934 0.026911899 0.94705927
1.6248928 0.026415184 0.9470607
1.6263217 0.026054 0.94703126
1.56942 0.029569 0.94797802
1.5712191 0.029494563 0.94794291
1.5730764 0.029065834 0.94792962
1.5748998 0.02886275 0.94794387
1.5770763 0.028802657 0.94792819
1.5790371 0.028833739 0.94792145
1.580947 0.028945265 0.94787806
1.5829347 0.028883025 0.94782037
1.5849216 0.028998595 0.94763559
1.587106 0.029055875 0.94754529
1.5889693 0.029008681 0.94749504
1.5910264 0.029112434 0.94736952
1.592975 0.029017933 0.94728827
1.5949692 0.028736645 0.94742811
1.5969948 0.028904088 0.94736242
1.5988796 0.028796004 0.94735509
1.6011266 0.028994624 0.94736439
1.6029993 0.029026724 0.94726241
1.6048467 0.029087186 0.94708216
1.6062155 0.028939001 0.9470405
1.6091737 0.029287249 0.94715375
1.6110404 0.029550189 0.94709653
1.6135415 0.028984498 0.94707221
1.6149886 0.028729592 0.94706553
1.6168875 0.028409528 0.94706357
1.6188387 0.029114071 0.94703305
1.620688 0.029374 0.94704032
1.6227776 0.028916817 0.94705063
1.6248916 0.029322166 0.94703221
1.626528 0.029396668 0.94702101
1.5732729 0.0301545 0.94797504
1.5750875 0.030821061 0.9479683
1.5770178 0.030878915 0.94793123
1.5790097 0.031000953 0.94790697
1.5810736 0.031146575 0.94781888
1.5829512 0.031089071 0.94774944
1.584965 0.030919537 0.94766527
1.587008 0.030822521 0.94753647
1.5889434 0.0307696 0.94748783
1.5908949 0.030880317 0.94746894
1.5931891 0.031111 0.94741589
1.5949638 0.030870931 0.94743878
1.5969824 0.031076668 0.94739491
1.5990725 0.030702628 0.94735956
1.6010406 0.031113738 0.9473713
1.6030558 0.031503804 0.9473536
1.6049887 0.031278357 0.947263
1.6069494 0.030841952 0.94724715
1.6090021 0.030725537 0.94713318
1.6108894 0.031092709 0.94712567
1.6129681 0.031095233 0.9471125
1.6151589 0.031225845 0.94707924
1.6169589 0.0310275 0.94707698
1.6190263 0.031060576 0.94706154
1.6212285 0.030926 0.94708002
1.6230044 0.030984415 0.94715327
1.6251339 0.031511184 0.94710594
1.6267886 0.031032471 0.94706279
1.5736471 0.033503432 0.94796133
1.5750657 0.033351097 0.94790822
1.5770333 0.032794945 0.94785106
1.5790362 0.032883629 0.94779992
1.5809017 0.03270971 0.94773537
1.5830226 0.032926068 0.94773996
1.5850766 0.033100225 0.94769889
1.5868136 0.032916728 0.94767737
1.5889708 0.032901134 0.94759923
1.5911689 0.032850955 0.94757235
1.5929974 0.033366937 0.94750565
1.5951282 0.033414844 0.9474588
1.5969939 0.033081409 0.9474076
1.5989364 0.032657437 0.94738573
1.6009413 0.032905489 0.94730711
1.6029673 0.032808587 0.94728392
1.6050146 0.032898735 0.94729078
1.6070251 0.033110969 0.94728225
1.6088759 0.032933451 0.94725168
1.6109964 0.032877646 0.947227
1.61313 0.032991961 0.94717985
1.6150116 0.033263076 0.94718337
1.617033 0.033476632 0.94716322
1.6189716 0.033091363 0.94712543
1.6209128 0.032929134 0.94710582
1.6229391 0.032725774 0.94711411
1.6249924 0.032823753 0.94707584
1.6268263 0.033245649 0.94705963
1.628387 0.032032002 0.94700801
1.5730414 0.034092002 0.94798946
1.5752965 0.034974642 0.94795448
1.5770959 0.034867551 0.94789964
1.5789126 0.034976725 0.94787693
1.5810167 0.034713432 0.94780576
1.5830588 0.034949366 0.9478004
1.58498 0.035461336 0.94780171
1.5870701 0.035315808 0.94769782
1.589028 0.034912363 0.9476344
1.5910019 0.034693122 0.94756228
1.5928985 0.03488712 0.94748652
1.5948244 0.034832407 0.94744462
1.5971812 0.034997899 0.94744569
1.599003 0.034942213 0.94742519
1.6009854 0.035050437 0.94739795
1.6030107 0.034690429 0.94741017
1.6050173 0.034995303 0.94740814
1.6071523 0.035587072 0.94736159
1.6089785 0.035327662 0.94731998
1.6110604 0.035063162 0.94731951
1.6129531 0.034835022 0.9471997
1.6149331 0.034561109 0.94717366
1.6170394 0.034995485 0.94719082
1.6189419 0.034871113 0.94719613
1.6210592 0.035408501 0.94719398
1.6229721 0.034977309 0.94720584
1.6248467 0.034623999 0.94715685
1.6270411 0.035238095 0.94714445
1.6285437 0.035257503 0.94706762
1.5751839 0.036974505 0.94795173
1.5772051 0.03751732 0.94792187
1.5790122 0.03725186 0.94787717
1.58103 0.036717068 0.9478181
1.5830276 0.036848519 0.94774604
1.584924 0.036803998 0.94773155
1.5868433 0.036823444 0.9476651
1.5890858 0.037105266 0.94768065
1.590892 0.03689516 0.94762218
1.5929836 0.036944859 0.94756758
1.5951489 0.036975782 0.9475252
1.5969722 0.037101857 0.94754088
1.5990585 0.037503593 0.9474951
1.6010355 0.037150335 0.94741511
1.6030189 0.036947377 0.94745779
1.6050272 0.036732204 0.94737053
1.6069031 0.036621042 0.94737566
1.6090033 0.037077371 0.94741881
1.6109763 0.037134264 0.94735813
1.6129725 0.037209634 0.94726354
1.6149935 0.036764305 0.94726247
1.6170069 0.036865 0.94726902
1.6189928 0.03694484 0.94732296
1.6210334 0.037397142 0.947326
1.6230816 0.037252426 0.94727439
1.6250244 0.036874644 0.94718868
1.6269553 0.036971252 0.94709849
1.6284705 0.037086751 0.94703281
1.5751206 0.038793705 0.9479022
1.5768776 0.038776208 0.94779342
1.579084 0.038980164 0.94781047
1.5809784 0.038991235 0.94777393
1.5828716 0.039003555 0.94774085
1.5849673 0.038790718 0.9478417
1.5870795 0.039059706 0.94788939
1.5890486 0.039437816 0.94785511
1.5910016 0.039485611 0.94787127
1.5930612 0.039076366 0.94772172
1.5949614 0.038837504 0.94745946
1.5969256 0.038575999 0.94743168
1.5989516 0.038856823 0.94742358
1.6009049 0.038902894 0.94740373
1.603058 0.039401889 0.94744325
1.6049761 0.039073769 0.94761604
1.6069388 0.038663398 0.9475947
1.6091126 0.039099004 0.9475894
1.6109828 0.039027896 0.947523
1.6130694 0.03935878 0.94751352
1.6150085 0.039125424 0.94733715
1.6168704 0.038801476 0.94729012
1.6189874 0.038945723 0.94729888
1.6209726 0.038908083 0.9472754
1.6228858 0.039141089 0.94732147
1.6250664 0.039097898 0.94723445
1.6268928 0.038938701 0.94714367
1.6288186 0.039334241 0.94710177
1.6306258 0.039473575 0.94707257
1.575654 0.040881999 0.94797897
1.5771852 0.040537626 0.94795376
1.578971 0.040899429 0.94791323
1.5811704 0.041640893 0.94792163
1.5830144 0.041195862 0.9478305
1.5850003 0.040995117 0.94777668
1.586978 0.040782761 0.9477849
1.5889527 0.040501114 0.94774956
1.5910289 0.041150346 0.94773728
1.5929163 0.040955923 0.94772381
1.5949697 0.041291129 0.94766301
1.5970042 0.040825699 0.94760334
1.5989952 0.040797044 0.94759262
1.6010298 0.040986907 0.94761509
1.6030791 0.041349646 0.94756055
1.6051244 0.041285209 0.94754809
1.6069882 0.040932626 0.94753116
1.6089668 0.040847741 0.94746429
1.6109267 0.040851161 0.947438
1.6130415 0.041026924 0.94739926
1.6150122 0.041100424 0.94737005
1.6170199 0.041022222 0.94737619
1.6190898 0.04105242 0.94738603
1.6209708 0.040930331 0.94739896
1.623103 0.041054524 0.94744503
1.6250561 0.041226197 0.94733697
1.6270736 0.041184131 0.94721186
1.6288772 0.040890753 0.94708705
1.6302198 0.040283002 0.94705278
1.5758026 0.043215498 0.94797051
1.577002 0.042982601 0.94795352
1.5789953 0.042549435 0.94789571
1.5810487 0.042686116 0.94791085
1.5830201 0.042950068 0.94786167
1.5850502 0.043397084 0.94777477
1.5869684 0.043083705 0.94776732
1.5890033 0.042631872 0.94775486
1.5911446 0.043082278 0.94777989
1.5930082 0.042964794 0.94778943
1.5950663 0.043378808 0.94779181
1.5970032 0.04318412 0.94765848
1.5988946 0.042814173 0.94760209
1.6010712 0.042902652 0.94756645
1.6029769 0.042881981 0.94753361
1.6049194 0.04314778 0.94755161
1.6071359 0.043094639 0.94755745
1.6089405 0.042944234 0.94754606
1.6110493 0.043039609 0.94749296
1.6129773 0.042969469 0.94749212
1.6150759 0.043026641 0.94749755
1.6170434 0.043259148 0.94746691
1.6189119 0.043148145 0.94741613
1.6209745 0.042869914 0.94739074
1.6229935 0.042705111 0.94736373
1.6249195 0.042747475 0.94726217
1.626907 0.043207206 0.94722301
1.6289824 0.042942148 0.94709826
1.6306143 0.042884402 0.94703764
1.6331511 0.043692671 0.94702435
1.5772505 0.045284498 0.94797397
1.5790488 0.044828072 0.94796044
1.5809512 0.044757433 0.94792807
1.5830188 0.044994466 0.9479118
1.5850322 0.045350686 0.94782239
1.5871435 0.045266643 0.9477964
1.5890051 0.044985145 0.94779325
1.5909225 0.044815045 0.94776309
1.5929483 0.044887863 0.94776428
1.5950904 0.044985667 0.94775486
1.5970292 0.045165733 0.947734
1.5990516 0.045067325 0.94768083
1.6009974 0.045012526 0.94772202
1.6029296 0.044951934 0.94768214
1.6050825 0.045054052 0.94769979
1.6070112 0.045143306 0.94767839
1.6090345 0.045234386 0.9476158
1.6109668 0.045047309 0.94750941
1.6129873 0.044675957 0.94745475
1.6149877 0.044771139 0.94742596
1.6170412 0.044930175 0.9474259
1.6190385 0.045217473 0.94747019
1.6210574 0.044765867 0.94744629
1.6230059 0.044758927 0.94746119
1.6249621 0.044942688 0.94742072
1.6270533 0.04514987 0.94741428
1.629146 0.045134783 0.94721383
1.6307377 0.04476025 0.94709396
1.5789356 0.047757082 0.94795483
1.581056 0.047038119 0.94793242
1.5830672 0.046922106 0.94787425
1.5849011 0.046854861 0.94776863
1.5869094 0.047123212 0.94779259
1.5891321 0.047141511 0.94784206
1.5909734 0.046945512 0.94783968
1.5929532 0.047054861 0.94789273
1.59496 0.0467299 0.94789749
1.5970321 0.046909444 0.94787598
1.599031 0.04728739 0.94783443
1.6009783 0.047178838 0.94775963
1.6030284 0.046909519 0.94769025
1.6049978 0.046701912 0.94764286
1.6068702 0.046710815 0.94760245
1.6089133 0.047214366 0.94759911
1.6109859 0.047010485 0.94757682
1.6129777 0.046570636 0.94753385
1.6150811 0.047032114 0.94756991
1.6167957 0.047028907 0.94762295
1.6189706 0.046989933 0.9476186
1.621008 0.047144376 0.94755203
1.6229869 0.047160801 0.94748658
1.6250697 0.047349479 0.94739079
1.6270252 0.046932276 0.94728929
1.6289015 0.046635713 0.94715434
1.6305863 0.046968471 0.94706464
1.5713043 0.049533665 0.94797003
1.573247 0.0491064 0.94797224
1.5773828 0.048198 0.94797963
1.5781314 0.048021499 0.94793952
1.5814762 0.0482875 0.94796604
1.5829632 0.048231501 0.94794554
1.5850531 0.048723523 0.9478026
1.5870701 0.0489734 0.9478336
1.5889682 0.049125429 0.94783372
1.5910506 0.049201243 0.94776177
1.5929505 0.049111776 0.94778782
1.595101 0.048911873 0.94793969
1.5970402 0.048592091 0.94788849
1.5989479 0.048651382 0.94782603
1.6009424 0.049260885 0.94791996
1.6030447 0.048824582 0.94784743
1.6049039 0.048524722 0.94763345
1.6070025 0.0489638 0.94772571
1.6089991 0.049230602 0.94776839
1.6112022 0.049060095 0.94758517
1.6131191 0.049007919 0.9475174
1.6150519 0.049374353 0.9475736
1.617049 0.049210027 0.94756573
1.6190265 0.048773371 0.94752634
1.6210142 0.048638813 0.94747758
1.6228739 0.048860848 0.94751382
1.624796 0.048988685 0.94745946
1.6271176 0.049013685 0.94736773
1.6289806 0.048952207 0.94726127
1.630988 0.049139064 0.94716889
1.6329654 0.0486673 0.94704527
1.6340755 0.049066 0.94701803
1.574744 0.051236 0.94799399
1.576648 0.050813999 0.94798601
1.5816548 0.051800251 0.94794399
1.5831802 0.051578071 0.9479351
1.5851668 0.051028144 0.94792122
1.5870275 0.050743829 0.94785273
1.5888959 0.050659813 0.94783062
1.5909239 0.050874539 0.94788039
1.5930462 0.05102944 0.94791836
1.5949261 0.0507055 0.94795567
1.5968913 0.050464228 0.94796032
1.5988128 0.050556004 0.94795275
1.6011426 0.051015429 0.9479543
1.6031098 0.051434942 0.94792992
1.605088 0.05113874 0.94787824
1.6071054 0.051412608 0.94776857
1.6089808 0.051016044 0.94770038
1.6108875 0.050679024 0.94767469
1.6130317 0.05076139 0.94758415
1.6148825 0.050933354 0.94763494
1.6169986 0.051043071 0.94763219
1.6191492 0.051065788 0.94764531
1.6209434 0.050881721 0.9476462
1.6229929 0.051055804 0.94770062
1.6251252 0.051090807 0.94754183
1.6270481 0.05111628 0.94739008
1.629115 0.051369157 0.94718802
1.6306231 0.051069696 0.94707084
1.6338465 0.050756 0.94702601
1.5752296 0.053395629 0.94796348
1.5769968 0.053056359 0.94797248
1.5792489 0.052492131 0.94796169
1.5809691 0.052269623 0.9479596
1.5826999 0.052699998 0.94795907
1.5851157 0.052596428 0.94795847
1.5871317 0.052321304 0.94796038
1.5887785 0.052353255 0.94796681
1.5903184 0.0520145 0.94796801
1.5936937 0.053951666 0.9479717
1.5957201 0.053511001 0.94799101
1.5971334 0.053642999 0.94796342
1.5989542 0.053230785 0.94793707
1.6009824 0.052779034 0.94790298
1.6029307 0.052577101 0.94788569
1.604964 0.052865423 0.94788587
1.6068547 0.053004295 0.9478659
1.6090442 0.052838404 0.9477815
1.6109909 0.053082787 0.94783705
1.6128432 0.052941993 0.94778818
1.6151676 0.053086612 0.94776046
1.6169981 0.053033601 0.94772053
1.6189843 0.053244621 0.94764102
1.6209749 0.053316567 0.94759214
1.6229688 0.052882228 0.94757515
1.6249583 0.052681975 0.94747734
1.6269058 0.052843075 0.94737929
1.6288711 0.052947741 0.94722098
1.6307977 0.052911557 0.94706017
1.6332927 0.053614572 0.94702518
1.57478 0.055442002 0.94798702
1.577922 0.054092001 0.94797599
1.5874938 0.055770501 0.94797927
1.5891739 0.05549489 0.94797444
1.5909564 0.055261288 0.94798303
1.5929532 0.054620866 0.94793898
1.5948889 0.054287188 0.94796133
1.5988687 0.055137336 0.94798034
1.6011591 0.054625001 0.94795382
1.6029125 0.054235313 0.9479413
1.6072569 0.055445872 0.94788682
1.609116 0.055144615 0.94787478
1.6110799 0.055442795 0.94779587
1.6130118 0.055112418 0.94770288
1.6149598 0.054728068 0.94767088
1.6171335 0.054789707 0.94769877
1.6189368 0.054817628 0.94767666
1.6210403 0.055071406 0.94763863
1.623154 0.054921225 0.94763672
1.6249204 0.054966569 0.94759834
1.6269761 0.055155855 0.94753748
1.6290625 0.055177968 0.94731617
1.6309109 0.054731917 0.94712001
1.633619 0.055000998 0.94702101
1.579862 0.057601999 0.94798201
1.5804729 0.057462499 0.94796598
1.5825768 0.056998666 0.94796371
1.5856971 0.056307003 0.94794673
1.586171 0.056203 0.94795001
1.6014315 0.057586294 0.94793999
1.6028357 0.0574212 0.94795316
1.6051655 0.056887239 0.94791079
1.6068884 0.056685064 0.94788343
1.6089498 0.056847099 0.94787669
1.6108497 0.056831546 0.94786114
1.6129639 0.056887474 0.94776779
1.6151291 0.057018112 0.94778764
1.616824 0.056999288 0.94781542
1.6190525 0.0571253 0.94783074
1.6209592 0.057132509 0.94775182
1.6229955 0.057023603 0.94768673
1.6250758 0.057311878 0.94755459
1.6270797 0.057072349 0.94740927
1.6289885 0.056936156 0.94723153
1.630746 0.057031453 0.94708288
1.633876 0.057078 0.947016
1.575556 0.058671337 0.94799066
1.57796 0.058019999 0.94797802
1.579959 0.059305999 0.94799602
1.5810452 0.059065498 0.94799244
1.583081 0.058615498 0.9479875
1.5950285 0.059076577 0.94794899
1.5970078 0.058908157 0.94796431
1.5989307 0.058557533 0.94796509
1.600949 0.058542203 0.94795883
1.6028409 0.059061997 0.94792849
1.6075177 0.058136504 0.94793791
1.608098 0.058015998 0.94796401
1.6115128 0.05986625 0.94797075
1.613404 0.059041537 0.94791806
1.6149724 0.059269682 0.94776428
1.6170396 0.059214365 0.94774479
1.6190237 0.059058256 0.94772983
1.621092 0.058942243 0.94769984
1.6229376 0.058852974 0.94767314
1.6248748 0.058676604 0.94759989
1.6268591 0.058604728 0.9474498
1.6290131 0.058951113 0.94731909
1.6309323 0.05925386 0.9471848
1.6329671 0.058922291 0.94705933
1.603976 0.061528999 0.94797999
1.6054904 0.061624996 0.94795251
1.6070727 0.061398525 0.94793671
1.6090484 0.061157722 0.94791335
1.6109241 0.061077118 0.94789422
1.6130453 0.060885474 0.94787925
1.6149725 0.060802087 0.94782346
1.6170053 0.060631838 0.94779646
1.6190989 0.060820598 0.94780886
1.620903 0.060989626 0.94781506
1.6229862 0.061182734 0.94779676
1.6249981 0.061236039 0.94765902
1.6270913 0.060908429 0.94748271
1.6291071 0.061345976 0.94722939
1.6307828 0.061148927 0.94709074
1.6326306 0.061129 0.94702554
1.6037588 0.062433004 0.94797873
1.6049532 0.0622775 0.94797522
1.6071919 0.062696241 0.94796038
1.6089755 0.062524833 0.9479273
1.611004 0.062370006 0.94788986
1.6126189 0.062393755 0.94792366
1.6153004 0.063315436 0.94792497
1.6170262 0.063101314 0.94790256
1.6190385 0.063018687 0.94783324
1.6211153 0.063309811 0.94774503
1.6230109 0.06310945 0.94769818
1.6249665 0.062981695 0.94759279
1.6269287 0.062540166 0.94743901
1.6290199 0.062737972 0.94727582
1.6308017 0.06323313 0.94709867
1.6329232 0.06369707 0.94707954
1.607752 0.065664999 0.94797701
1.6091664 0.065349504 0.94796503
1.6110585 0.06544517 0.94791752
1.6130701 0.06527067 0.94790876
1.6149359 0.065072611 0.94788438
1.6170182 0.064805977 0.94784498
1.6189326 0.064468503 0.94781983
1.6210129 0.064844966 0.94780749
1.6229709 0.065311372 0.94774234
1.6250064 0.065339655 0.94766152
1.6270566 0.065152332 0.94752651
1.6289899 0.065178111 0.94733679
1.6308819 0.064880073 0.94714302
1.6328911 0.06452205 0.94708598
1.607149 0.066654339 0.94798535
1.6092554 0.066432856 0.94793791
1.6110593 0.066597372 0.9479512
1.6128209 0.067078948 0.94791889
1.6150713 0.067330562 0.94791752
1.6169348 0.066982053 0.94791746
1.6190786 0.067035206 0.94790542
1.6209543 0.0672374 0.94787961
1.6230313 0.067020856 0.94773167
1.6249943 0.066918239 0.94759607
1.6270561 0.066841312 0.94739115
1.6289376 0.066832289 0.94723582
1.6306722 0.066686057 0.94705647
1.6331201 0.06711822 0.94702703
1.6074467 0.068891168 0.94795513
1.6090053 0.068535 0.94791049
1.6110185 0.068384878 0.94791782
1.6130164 0.069204651 0.94786096
1.6151358 0.069422692 0.94791442
1.6170524 0.068953894 0.94786227
1.6190175 0.068887673 0.94781268
1.6209309 0.068785928 0.94776404
1.6228218 0.068621956 0.94770426
1.6250612 0.069026232 0.94758546
1.6267966 0.069016382 0.94745076
1.6289828 0.069309637 0.94730246
1.630895 0.068881355 0.94710785
1.6328316 0.068943374 0.94706589
1.6112213 0.070471838 0.94795978
1.6130362 0.070460178 0.94787061
1.6150479 0.070650429 0.94792354
1.6170735 0.070943736 0.94794035
1.6190223 0.071240351 0.94787818
1.6209893 0.071237437 0.94787437
1.623088 0.070865415 0.94774163
1.624951 0.071083374 0.94761091
1.6271167 0.07099472 0.94743609
1.6290071 0.071086682 0.94720042
1.6306188 0.070642665 0.94706428
1.632957 0.071537003 0.94701397
1.6136568 0.072462671 0.94795668
1.6151346 0.072546557 0.94796401
1.617295 0.073312275 0.9479599
1.6190391 0.073153637 0.94785678
1.6209457 0.07302811 0.94776791
1.6230009 0.072911754 0.94763023
1.6249846 0.072943009 0.94749498
1.6268338 0.072716467 0.94739389
1.6290579 0.073103055 0.94721681
1.6307608 0.072929002 0.94707918
1.6327804 0.073699094 0.9470517
1.611915 0.075470001 0.94797099
1.6132877 0.075090915 0.9479329
1.6149696 0.074953422 0.94794035
1.6171011 0.074646965 0.94789529
1.6189802 0.074828118 0.94785869
1.6210335 0.075056203 0.94777226
1.6230266 0.075126462 0.94769251
1.6250241 0.075231366 0.94758391
1.6269867 0.074728146 0.9474417
1.6290305 0.075285532 0.94726658
1.630686 0.074812613 0.94710988
1.632408 0.075245194 0.94703907
1.613624 0.076972336 0.94797868
1.6151114 0.077083871 0.94795114
1.6171089 0.076845005 0.94795686
1.6190557 0.076748312 0.94789726
1.6210711 0.077287093 0.9478333
1.6229756 0.077213727 0.94762605
1.6250821 0.077161685 0.94749439
1.62703 0.076774888 0.94734734
1.6290071 0.076711357 0.94715643
1.6303948 0.076899998 0.94705385
1.633335 0.077840999 0.94701701
1.6139615 0.079743996 0.94789201
1.6150531 0.079415783 0.94791776
1.6170815 0.079121374 0.94789118
1.6189613 0.078711487 0.94781339
1.6209861 0.078712732 0.94774753
1.6229279 0.078911863 0.94765365
1.6249291 0.079161063 0.94753462
1.6270001 0.078953333 0.94733202
1.6288949 0.078571916 0.94719869
1.6310093 0.079238288 0.94704133
1.6325755 0.079551578 0.9470399
1.6134347 0.081528597 0.94797796
1.6151608 0.080969602 0.9479335
1.6169698 0.081279412 0.94789773
1.6190208 0.080853708 0.94782084
1.6208768 0.080534436 0.94773644
1.6231228 0.080959752 0.94765496
1.6250324 0.081447147 0.9475385
1.6270562 0.081296749 0.94732511
1.6289299 0.080845363 0.94718224
1.630488 0.080296151 0.94708705
1.611632 0.082152002 0.94797897
1.6132532 0.082395002 0.94797844
1.615152 0.083008662 0.94793236
1.6170573 0.083519928 0.94789857
1.6189563 0.083258025 0.94779104
1.6209737 0.08279936 0.94774199
1.6230253 0.082789242 0.94757706
1.6250626 0.083016783 0.94742626
1.6269578 0.083163425 0.94728214
1.6289483 0.083097212 0.94711173
1.6304188 0.082406603 0.94702721
1.6114362 0.085499205 0.94796944
1.6131471 0.084905691 0.94791728
1.6149811 0.084939376 0.9478547
1.6170695 0.085049152 0.94778943
1.6190987 0.085253596 0.94772321
1.6209953 0.085052229 0.94768423
1.6228734 0.084752172 0.94757909
1.6248206 0.084545836 0.94745576
1.6269692 0.085033968 0.94733423
1.6289217 0.085211195 0.94719166
1.6304774 0.084914744 0.94703197
1.6116381 0.087171003 0.94796097
1.6131067 0.086843707 0.94793022
1.6149715 0.086707875 0.94782752
1.6169839 0.086688593 0.94775444
1.618914 0.087004662 0.94772375
1.6211649 0.087427229 0.94766229
1.6231003 0.087330177 0.94747579
1.625006 0.087123394 0.94739538
1.6270022 0.087096505 0.94720024
1.6286794 0.086880982 0.94707841
1.6133761 0.089522168 0.94784743
1.6150671 0.08928299 0.94775504
1.616901 0.08903978 0.94768298
1.6189867 0.089014061 0.94756448
1.620912 0.08867006 0.94754356
1.6229463 0.08859387 0.94748598
1.6250021 0.089063823 0.94735897
1.6270487 0.08924403 0.94720066
1.6287031 0.089257158 0.9470681
1.6112995 0.090541027 0.94794917
1.6129111 0.090605222 0.94787943
1.6150372 0.09077163 0.94776428
1.6170161 0.090936832 0.94767022
1.6190711 0.091371857 0.94758761
1.6211274 0.091151588 0.94754803
1.6229659 0.090938143 0.94746673
1.6250821 0.09096162 0.94732231
1.6267906 0.090855367 0.94718552
1.6285608 0.090666287 0.94707263
1.6132293 0.093019426 0.94791251
1.6149064 0.09287414 0.94781774
1.6170851 0.092912294 0.94766313
1.6190524 0.093046732 0.94750494
1.6209399 0.092991509 0.94742137
1.6230441 0.092816092 0.94730675
1.6250222 0.092888013 0.94722486
1.626778 0.092773646 0.94709492
1.6112901 0.095455877 0.94794524
1.6130018 0.095151789 0.94784534
1.6149771 0.094693571 0.94768709
1.6169376 0.094888061 0.94758993
1.6188465 0.094883204 0.94745803
1.6209899 0.094928935 0.94738668
1.6230874 0.095048741 0.94728798
1.6248339 0.095018193 0.94723111
1.6268573 0.094927832 0.94710416
1.6281736 0.094618998 0.9470405
1.611305 0.097230375 0.94796497
1.6130736 0.096885696 0.94782299
1.6150236 0.097028807 0.94772458
1.6169016 0.097045667 0.94763058
1.6192076 0.097150259 0.94749129
1.621029 0.096927613 0.94739515
1.6229275 0.097277604 0.94717574
1.6249471 0.096988536 0.94709229
1.6262908 0.096832745 0.94704884
1.6116091 0.099758752 0.94796598
1.613049 0.098888494 0.94789541
1.6149569 0.099337406 0.94767898
1.6170877 0.099037118 0.94752157
1.618908 0.098931074 0.94739288
1.6210001 0.098671518 0.94728053
1.6231419 0.09880095 0.94716436
1.6246294 0.099058129 0.94707888
1.6096084 0.101007 0.94798952
1.6111959 0.10073261 0.9479109
1.6129842 0.1006059 0.9478116
1.6151936 0.10089614 0.94767708
1.6168089 0.10104427 0.94758195
1.6189579 0.10109646 0.94741398
1.6211131 0.10108399 0.94735253
1.6228726 0.10091286 0.9472096
1.6248938 0.10097546 0.94709504
1.6115636 0.10288201 0.94795096
1.613132 0.10299146 0.94786501
1.6148462 0.10290249 0.94775772
1.6170653 0.10329845 0.94756347
1.6191177 0.10298558 0.94740993
1.6209179 0.10309586 0.94729716
1.6227655 0.10294294 0.94711941
1.6243573 0.1033003 0.94703341
1.609954 0.105523 0.94799
1.6112751 0.10535806 0.94793308
1.6130235 0.10518979 0.94781244
1.6150419 0.10476306 0.94763654
1.6169116 0.10508626 0.9475475
1.6188821 0.10477385 0.94739807
1.6210141 0.10473001 0.94728321
1.6231301 0.10491163 0.94713634
1.6249205 0.10554631 0.94706458
1.6112429 0.10683856 0.9479602
1.6130295 0.10664567 0.94782162
1.6150614 0.10695479 0.94769692
1.6171802 0.10753745 0.94763565
1.6191018 0.1073488 0.9474842
1.6210175 0.10711993 0.94734496
1.622825 0.10674185 0.94718111
1.6244224 0.10654812 0.94708723
1.611192 0.1097675 0.94797701
1.6130826 0.10914748 0.94787347
1.6149582 0.10882614 0.94771379
1.6169871 0.10892133 0.94755286
1.6189804 0.10897452 0.94738609
1.6209925 0.10915732 0.94730633
1.6230214 0.10873041 0.94713235
1.6243719 0.10860455 0.94703752
1.6114631 0.11055833 0.9479441
1.6130904 0.11112065 0.94787174
1.6149657 0.11068884 0.94772243
1.6168501 0.11050492 0.94758582
1.6190214 0.11099075 0.94747412
1.6209594 0.11140079 0.94742304
1.6231335 0.11126008 0.94724059
1.6247648 0.1110341 0.94710243
1.6115431 0.112057 0.94798499
1.6132792 0.1132396 0.94792634
1.6151115 0.1132374 0.94778901
1.6170537 0.11318693 0.94761539
1.618999 0.1132191 0.94742405
1.6210183 0.11304762 0.94733161
1.6229365 0.11291531 0.94715303
1.6245992 0.11299838 0.94705439
1.609707 0.11548 0.94800001
1.6113904 0.11537623 0.94795656
1.6131159 0.11495148 0.94786513
1.6149246 0.11489437 0.94772738
1.6169329 0.11476889 0.94761479
1.6190888 0.11480322 0.94749421
1.6209694 0.11487931 0.94741982
1.6229222 0.11488289 0.94724768
1.6250687 0.11492114 0.94710058
1.6266392 0.11571112 0.94706988
1.6131853 0.11672284 0.94790477
1.615037 0.11692514 0.94782013
1.6171844 0.11693378 0.9476881
1.6188395 0.11709818 0.94763631
1.621085 0.11740062 0.94747466
1.6230581 0.11713975 0.94731247
1.6247985 0.11696286 0.94715542
1.6261849 0.1179455 0.94701445
1.6130347 0.11967807 0.94786745
1.6150962 0.11912249 0.94781035
1.6169697 0.11899447 0.94768965
1.6190228 0.11898452 0.94753641
1.6209632 0.11878105 0.94747013
1.6230223 0.11884506 0.94731706
1.6249325 0.1189293 0.94714957
1.6264328 0.11919386 0.94706064
1.60973 0.120493 0.94798398
1.6111038 0.12019125 0.94798803
1.6131101 0.12077856 0.94791639
1.6149828 0.12089799 0.94783926
1.6168991 0.12089469 0.94773215
1.618965 0.12100474 0.94762844
1.621138 0.12095951 0.94755679
1.6228085 0.12104523 0.94747746
1.6251382 0.12132911 0.94724011
1.6268179 0.1208382 0.94710821
1.6284444 0.120169 0.94702804
1.6132778 0.12250634 0.94793683
1.6148356 0.12265264 0.94793367
1.617146 0.12331684 0.9477973
1.6191227 0.12306649 0.94766736
1.620911 0.12304951 0.94755322
1.6229672 0.12278014 0.94737625
1.6249541 0.12288274 0.94721222
1.6265543 0.12287422 0.94707316
1.6131264 0.12493205 0.94790757
1.6149886 0.12466202 0.94784534
1.6169295 0.12500235 0.94779038
1.6188483 0.12487596 0.94768369
1.6209958 0.12487274 0.94755572
1.6230836 0.12500893 0.94749016
1.6248392 0.12501125 0.947375
1.6271287 0.12494718 0.94714916
1.628463 0.12465886 0.94705093
1.6133316 0.12667733 0.94795585
1.61499 0.12629794 0.94790667
1.617075 0.12699509 0.94791579
1.6191922 0.12701342 0.94780368
1.6211238 0.1271688 0.94765759
1.6229715 0.12727068 0.94748563
1.6249801 0.12711637 0.94726652
1.6268409 0.12702298 0.94709122
1.6133903 0.12973619 0.94794703
1.6150644 0.12936468 0.94791114
1.6170155 0.12906297 0.94783795
1.6189395 0.12893388 0.9477492
1.6209075 0.12877914 0.9476499
1.6230296 0.12859027 0.94748998
1.6250143 0.12899928 0.94729847
1.6270949 0.12950982 0.94715077
1.62849 0.12945634 0.94703197
1.6130165 0.13079584 0.94797635
1.6151022 0.13070858 0.94795644
1.616994 0.13091601 0.9478991
1.6191386 0.13144964 0.94782615
1.6210932 0.13120589 0.94773293
1.6229365 0.13092114 0.94761372
1.6250803 0.13094613 0.94738001
1.6268765 0.13080278 0.94718897
1.6283625 0.13045517 0.94707155
1.613559 0.132421 0.94798398
1.6149666 0.13210668 0.94796836
1.6173164 0.13296631 0.94789946
1.6190457 0.13299125 0.94783413
1.6210036 0.13314286 0.94765836
1.6229957 0.13311809 0.94751328
1.6248649 0.13273251 0.94731945
1.6269394 0.13249019 0.94713491
1.6282146 0.13309167 0.94704264
1.6116775 0.13515851 0.94797099
1.6132001 0.13493702 0.94794017
1.6150135 0.13476785 0.94793248
1.6168964 0.13469729 0.94789886
1.6190075 0.13460743 0.94781744
1.620893 0.13499522 0.94772971
1.6231406 0.13540615 0.9475829
1.6251044 0.13519983 0.94739515
1.6270409 0.13507432 0.94719517
1.628414 0.13501701 0.94706357
1.6151955 0.13698301 0.94797075
1.6171621 0.13696505 0.94793719
1.6190295 0.13707256 0.94788641
1.621101 0.1371464 0.94778335
1.6229631 0.13703841 0.94756436
1.6249474 0.13688761 0.94734639
1.6267591 0.13694851 0.94712996
1.6280659 0.137355 0.94703001
1.6131498 0.13981958 0.94794643
1.6149611 0.13952786 0.94793904
1.6171209 0.13905093 0.94787049
1.6189263 0.13884158 0.94779772
1.6209134 0.13862056 0.94769216
1.6230296 0.13872647 0.94756371
1.6249106 0.13905387 0.94739658
1.6270034 0.13912849 0.94718266
1.6285056 0.1390256 0.94702619
1.6131182 0.14017339 0.94797212
1.615742 0.14108451 0.94794548
1.6169584 0.1410061 0.94792098
1.6190153 0.14108072 0.947842
1.6211593 0.14106432 0.94777256
1.6229413 0.14095378 0.94767004
1.6249774 0.14138365 0.94741571
1.6269464 0.14114213 0.94719428
1.628531 0.14021423 0.94708294
1.6155676 0.1435622 0.94795036
1.6170657 0.1436705 0.94788754
1.6190351 0.14326578 0.94782722
1.6209973 0.1428806 0.94770175
1.6229879 0.14294578 0.94758952
1.6249834 0.14272316 0.94736439
1.6270672 0.14291881 0.94721317
1.6284802 0.14307547 0.94706649
1.609903 0.14524201 0.94798398
1.6113667 0.14528334 0.94798136
1.6129831 0.14496107 0.9479596
1.6149523 0.14471632 0.94795233
1.6170132 0.14461215 0.94788563
1.6191444 0.14506829 0.94788522
1.6209557 0.14491126 0.94777602
1.6230035 0.14507213 0.94759661
1.6251929 0.14491425 0.94741005
1.6269046 0.14502497 0.94726318
1.6290085 0.14512332 0.94710982
1.6306 0.1447465 0.94702101
1.6111859 0.1477776 0.94794768
1.6131371 0.14713569 0.94794601
1.6149453 0.14694524 0.94793248
1.6171443 0.14693268 0.9478963
1.6188544 0.14704588 0.94783992
1.6210235 0.14744247 0.94771349
1.622983 0.14694053 0.94756067
1.6248814 0.14701404 0.94738835
1.6269658 0.14676951 0.94714987
1.6282727 0.146955 0.94705021
1.6091963 0.14903007 0.94796711
1.6113766 0.14959994 0.94787031
1.6129866 0.14930883 0.94783354
1.6150779 0.14899854 0.94784504
1.616933 0.14897691 0.94777322
1.6190801 0.14877501 0.94769752
1.6210272 0.1491951 0.94759047
1.6231226 0.14894186 0.94745976
1.6250002 0.14915688 0.94726145
1.6270045 0.1489877 0.94710493
1.6282495 0.14904885 0.94702435
1.600814 0.15158799 0.94797999
1.6030761 0.1518023 0.94788218
1.6050143 0.15133248 0.94789368
1.6070585 0.15120703 0.94784606
1.6089761 0.15093647 0.94779783
1.6109724 0.15102103 0.94771582
1.6129904 0.15098821 0.94766945
1.6149801 0.15101729 0.94762242
1.6170567 0.15106092 0.94753444
1.6189615 0.15099627 0.94751179
1.621103 0.15106566 0.9474377
1.6229155 0.15096016 0.94737518
1.6249686 0.15092818 0.94719845
1.6267232 0.15054341 0.94711262
1.628121 0.150365 0.94703001
1.5604866 0.15398701 0.947896
1.5670755 0.15390234 0.9478873
1.583223 0.15387428 0.94773471
1.584971 0.15354075 0.94791174
1.5865873 0.1532032 0.94797462
1.5896044 0.1539375 0.94757414
1.5910078 0.15368661 0.94777316
1.5930645 0.15357883 0.94782692
1.5949535 0.15339714 0.94785273
1.5971564 0.15336412 0.9478265
1.5990356 0.15314595 0.94781387
1.6011355 0.15292528 0.94773102
1.6029747 0.15313762 0.94763494
1.6050719 0.15302861 0.94754261
1.6068951 0.15306306 0.94743305
1.6090221 0.15305589 0.94732606
1.610942 0.15297344 0.9473204
1.612986 0.15300478 0.94729584
1.6150093 0.15306658 0.94727916
1.6169453 0.15290616 0.94727015
1.6190407 0.15296474 0.94724613
1.6209068 0.15282393 0.94719654
1.6230329 0.15258259 0.94710135
1.6246046 0.15262662 0.94703621
1.55316 0.15409938 0.94787341
1.5596676 0.1541355 0.94778669
1.560147 0.15406567 0.94790971
1.5656356 0.15441446 0.9473964
1.567052 0.15466729 0.94754225
1.5686592 0.15467942 0.94781739
1.5736487 0.1545168 0.94742537
1.5749998 0.15430187 0.94770783
1.576146 0.154117 0.94793999
1.5796615 0.15446401 0.94707102
1.5809981 0.1542391 0.94730747
1.5822128 0.15407149 0.94764924
1.5873851 0.15437327 0.94716281
1.5888783 0.15446775 0.94729775
1.5910906 0.15443084 0.94747621
1.5928417 0.15452945 0.94736511
1.5950174 0.1543835 0.94750768
1.5964907 0.15408957 0.94761205
1.599593 0.1542706 0.94704247
1.6004812 0.15411937 0.94719434
1.6036354 0.15422101 0.94705838
1.6043687 0.15407768 0.94712067
1.6080559 0.15401 0.94701302
1.6113863 0.15405467 0.94704407
1.613582 0.154258 0.94702053
1.6143719 0.15408699 0.94703048
1.5750717 0.15705167 0.94727898
1.5692508 -0.00016794993 0.94821334
1.5710123 -0.00057798927 0.94810063
1.5729023 -0.0010020401 0.9480378
1.5744388 -0.001107 0.94800937
1.5598848 0.0019830836 0.94853145
1.5609939 0.00174496 0.94852287
1.5630308 0.0012839887 0.94843847
1.5650097 0.00084675686 0.94838798
1.566985 0.00040366221 0.94828606
1.5684702 0.00030196604 0.94822007
1.5710449 0.00097095646 0.94812387
1.5728655 0.0010559259 0.94804907
1.5747349 0.00071400002 0.94801682
1.5516046 0.0039177649 0.94890267
1.5529897 0.0035950374 0.94880205
1.5549703 0.0031539113 0.9487415
1.557022 0.002699858 0.94868296
1.5589508 0.0022785563 0.94861025
1.560816 0.0028045643 0.94853306
1.5629828 0.002983917 0.94845796
1.5649806 0.0028735111 0.94838876
1.566994 0.0026988932 0.94832438
1.5689896 0.002847577 0.94824582
1.5708553 0.0029876402 0.94818723
1.572976 0.0030561427 0.9480992
1.5748886 0.0026191112 0.94804478
1.5764329 0.0022720001 0.94802099
1.545789 0.0055720001 0.94899797
1.5472997 0.0049046357 0.9489764
1.5488207 0.0046386872 0.9489699
1.5507458 0.0042657214 0.94893688
1.5529581 0.0048889793 0.9488126
1.5549903 0.0050848634 0.94872528
1.5568912 0.0047938158 0.94868028
1.558973 0.0045593102 0.94860566
1.5610628 0.0050859265 0.94855493
1.562801 0.0049990001 0.9485178
1.5650716 0.0053991876 0.94838554
1.5670754 0.0052303202 0.94829994
1.5689344 0.0050794003 0.94820499
1.5709404 0.0047773328 0.94809836
1.5728582 0.0047445907 0.94805574
1.5742745 0.0050619999 0.94804096
1.5472028 0.0070084999 0.94896948
1.5490284 0.006597118 0.94896924
1.5510533 0.0066413912 0.94892335
1.5529728 0.0069822674 0.94885659
1.5551094 0.0073163002 0.94882149
1.5571202 0.0073572961 0.94866854
1.5590591 0.0071363454 0.94859797
1.560955 0.0070382329 0.94849771
1.5630183 0.0066215238 0.94841284
1.5649623 0.0068271053 0.94835395
1.5668359 0.0069117998 0.94831586
1.5690048 0.0069238008 0.9481858
1.5710337 0.0071299621 0.94813323
1.5729365 0.0071896371 0.94808328
1.5749054 0.0072506252 0.94806689
1.5770938 0.0069006663 0.94801468
1.5474483 0.0094800768 0.9489128
1.5490029 0.0092824372 0.94883043
1.551013 0.009168827 0.94880652
1.5529952 0.0089048315 0.94870335
1.5549495 0.0085860481 0.94870138
1.5569113 0.0088763246 0.948695
1.5588791 0.0089504486 0.94861984
1.5611193 0.0089333747 0.94854873
1.5629847 0.0090163667 0.94852281
1.565093 0.009313561 0.94843102
1.5670174 0.0090923449 0.94828027
1.5689884 0.0087864706 0.94814265
1.5710785 0.0087854285 0.94808525
1.5725313 0.0087573845 0.94807374
1.575202 0.0091070002 0.94800597
1.5469824 0.0101435 0.94893742
1.5491065 0.010607875 0.9489606
1.5511539 0.010926778 0.94893521
1.5531616 0.010949001 0.94887733
1.55493 0.010909693 0.94875538
1.5569873 0.011425138 0.94878525
1.5590013 0.010969535 0.94870323
1.5609779 0.010984882 0.94857001
1.5630873 0.011099623 0.94849777
1.5648762 0.010968434 0.94844687
1.5670196 0.010674268 0.9482469
1.5690404 0.011059502 0.94819981
1.5708523 0.010899918 0.94814968
