# .PCD v0.7 - Point Cloud Data file format
VERSION 0.7
FIELDS x y z
SIZE 4 4 4
TYPE F F F
COUNT 1 1 1
WIDTH 1024
HEIGHT 1
VIEWPOINT 0 0 0 1 0 0 0
POINTS 1024
DATA ascii
1.4829609 0.21398041 0.93698311
1.4851583 0.21373877 0.93695444
1.4869579 0.21359582 0.93685549
1.4890617 0.213282 0.93695939
1.49042 0.21312401 0.93693471
1.4691995 0.21591525 0.93661135
1.4709704 0.21554524 0.93684632
1.473 0.21534108 0.9367913
1.4750245 0.21522506 0.93661648
1.4761187 0.21501747 0.93680298
1.4793833 0.21464598 0.93678176
1.4810044 0.21453096 0.9366774
1.4824996 0.21428604 0.93686968
1.4855161 0.21497266 0.93695009
1.4869998 0.21504684 0.93688178
1.4888783 0.21491022 0.9369393
1.4904078 0.21498251 0.9369579
1.457027 0.21720502 0.93691766
1.4585431 0.2170188 0.93693596
1.4614702 0.21676092 0.93687546
1.4629742 0.21668284 0.93673003
1.4647833 0.21648423 0.93676203
1.4671037 0.21623902 0.93675375
1.4685955 0.21649058 0.93662131
1.4709531 0.21700494 0.93683285
1.4730364 0.21691903 0.93676382
1.4750051 0.21689615 0.93659812
1.4762777 0.21711166 0.93674183
1.4795644 0.21706392 0.93684369
1.4809921 0.21707007 0.93668056
1.4825696 0.21697885 0.93685752
1.4855537 0.21707667 0.93696147
1.4870061 0.21703227 0.93690622
1.4889107 0.2169282 0.93693769
1.4904331 0.21702045 0.93697125
1.4571621 0.21886812 0.93690372
1.458588 0.21899346 0.93689579
1.4615546 0.2190357 0.93688697
1.4629989 0.21909806 0.93673313
1.464977 0.21898542 0.93683577
1.4670222 0.21899149 0.9368338
1.4689919 0.21903802 0.93661398
1.4709777 0.21902469 0.9367854
1.4730496 0.21897088 0.93681645
1.4750155 0.21891303 0.93660802
1.4763675 0.21900846 0.93671948
1.4797016 0.21891998 0.93689114
1.4809757 0.21905856 0.93669254
1.4827099 0.21901062 0.93685055
1.485743 0.21851915 0.93695134
1.4870669 0.21898185 0.93691021
1.488928 0.2189378 0.93693811
1.4903768 0.21874452 0.93697369
1.4572698 0.22090851 0.93690604
1.4586056 0.22090605 0.93689424
1.4616169 0.22100858 0.9368999
1.4629613 0.22106619 0.93675262
1.4649938 0.2210134 0.9368124
1.4670843 0.22098698 0.93685788
1.4690031 0.22109579 0.93662918
1.470944 0.2210563 0.9367407
1.4730616 0.2209616 0.93686044
1.4750261 0.22092557 0.936625
1.47648 0.22096358 0.93668425
1.4797881 0.22082953 0.9369064
1.4809837 0.22093627 0.93671364
1.4828022 0.22096115 0.93682754
1.4858207 0.22081609 0.93693739
1.4871637 0.22109544 0.93691504
1.4888952 0.22096261 0.93694389
1.4905328 0.22091147 0.93695956
1.4573957 0.22292858 0.93691504
1.4586958 0.22294684 0.93687695
1.4617107 0.22266585 0.93694115
1.4629771 0.22302322 0.93677759
1.4649674 0.22289549 0.93677849
1.467075 0.22299817 0.93688935
1.4689642 0.22304825 0.93664753
1.4709685 0.22306623 0.93670684
1.473079 0.22294293 0.9368844
1.4750063 0.22291996 0.93661267
1.4766129 0.22307663 0.93667227
1.4798518 0.22257936 0.93697006
1.4810148 0.22298779 0.93674344
1.4828553 0.22301181 0.93681449
1.4872086 0.22297055 0.93692315
1.4889082 0.22290562 0.93693751
1.4904391 0.22268701 0.93697065
1.4574598 0.22486475 0.93691629
1.4588023 0.22500987 0.93687582
1.4614539 0.22478648 0.93697184
1.4629864 0.22507541 0.93677235
1.4649472 0.22498924 0.93676567
1.4670552 0.22507903 0.93691307
1.4689958 0.22507265 0.93665731
1.4709542 0.22507323 0.93665618
1.4730227 0.22489364 0.93689024
1.4750317 0.22486377 0.93663216
1.4767036 0.22500549 0.93666869
1.4811108 0.22485207 0.93676656
1.4829514 0.22493123 0.9368214
1.484135 0.22543919 0.93697828
1.4873937 0.22500564 0.93693727
1.488915 0.2249276 0.93695533
1.4904763 0.22514898 0.93698162
1.4575914 0.22676197 0.93689364
1.458901 0.22698317 0.93686205
1.4613403 0.22705135 0.93698764
1.4630214 0.22696552 0.93678856
1.4649581 0.22688936 0.93674231
1.4670264 0.22695555 0.93692946
1.4689701 0.22701579 0.93667555
1.4709578 0.22705407 0.93663907
1.4730006 0.22688916 0.93692541
1.4750057 0.22690304 0.93667346
1.4768639 0.22700961 0.9366743
1.4812362 0.22691438 0.93676263
1.4829806 0.22698706 0.93679994
1.484169 0.22718047 0.93695867
1.4875731 0.22698241 0.93694562
1.4888773 0.22704028 0.93695205
1.4907011 0.22672442 0.93697798
1.4577367 0.22880097 0.93690175
1.4589977 0.22898461 0.93686235
1.4606029 0.22910266 0.93694896
1.4631499 0.22901762 0.9368186
1.4650202 0.2289779 0.93671715
1.4670101 0.22897738 0.93692958
1.4689926 0.22908635 0.93673462
1.4709743 0.22912939 0.93664718
1.4729528 0.22900215 0.93691719
1.4750191 0.22898453 0.9367038
1.4769398 0.22902375 0.93668151
1.481389 0.22891755 0.93677682
1.4830182 0.2289619 0.93678689
1.48427 0.22904937 0.93694311
1.4875998 0.22887862 0.93693829
1.4888827 0.22894675 0.93695617
1.4904282 0.22909801 0.93696636
1.4526474 0.2306 0.93698454
1.4578235 0.23076719 0.93692183
1.4590148 0.23097117 0.93687469
1.46044 0.2311298 0.93694448
1.4632744 0.23096389 0.9368313
1.4649835 0.23099868 0.93671101
1.4669501 0.23103516 0.93691206
1.4689893 0.23107064 0.93676174
1.4709752 0.23108873 0.9366433
1.4728557 0.23102629 0.9368844
1.4750581 0.23096283 0.93676269
1.4769812 0.23102783 0.93667299
1.4780715 0.23128276 0.93689173
1.4814739 0.23090613 0.93681294
1.4830018 0.23091657 0.93678385
1.4843307 0.23109402 0.93693465
1.4877861 0.23095159 0.9369697
1.4888376 0.23103175 0.93695956
1.490398 0.23106767 0.93698227
1.453634 0.2324975 0.936993
1.4578979 0.23256649 0.93697518
1.4589961 0.23297359 0.93687648
1.4604995 0.23311242 0.93690437
1.4634122 0.23298103 0.9368223
1.4650017 0.2329637 0.9367249
1.4670005 0.23299557 0.9368735
1.4690467 0.2330067 0.93679953
1.4709651 0.23301315 0.93666631
1.4729146 0.23298989 0.9368642
1.4750816 0.23299022 0.93681049
1.4770018 0.23302338 0.93666106
1.4781815 0.23312478 0.93680084
1.4816402 0.23288319 0.93683428
1.4830108 0.23293699 0.9367767
1.4844339 0.2331084 0.93692416
1.487694 0.23245299 0.936975
1.4887652 0.23303968 0.93696201
1.4907225 0.23311666 0.93697822
1.459148 0.2349721 0.93688083
1.4604834 0.23515998 0.93689001
1.4635074 0.23494922 0.93686575
1.4649924 0.23493439 0.93673706
1.4669671 0.23499189 0.93684334
1.4691031 0.23503458 0.93682975
1.47096 0.23499884 0.93666995
1.4728992 0.23492204 0.93683547
1.4751287 0.23500706 0.93684155
1.4770199 0.2350747 0.93668497
1.4782706 0.2351747 0.93675727
1.4817957 0.23479763 0.93692392
1.4830008 0.23498479 0.93678373
1.4845719 0.23581678 0.93689907
1.4878449 0.234686 0.936984
1.4889122 0.23528549 0.93697357
1.4902765 0.23513122 0.93696707
1.4537842 0.23635025 0.93699849
1.4592317 0.23706071 0.93689954
1.4606957 0.23715754 0.93689638
1.4636215 0.23696885 0.93688941
1.4649819 0.23701744 0.93675816
1.4674302 0.23767692 0.93691081
1.4691257 0.23768663 0.93687677
1.4709738 0.23760539 0.93670464
1.4729697 0.23732586 0.9368099
1.4753789 0.23701985 0.93685699
1.4770049 0.23698135 0.93667501
1.478344 0.23683108 0.93673223
1.481923 0.23633575 0.93691075
1.4830142 0.2362559 0.93680066
1.484574 0.23699462 0.93687427
1.4892049 0.23687764 0.93697429
1.4908575 0.23689151 0.93699145
1.4534873 0.2396163 0.93699217
1.4544652 0.23842601 0.93699968
1.4593815 0.23896912 0.93689853
1.4607189 0.23884949 0.93688679
1.4637517 0.23847044 0.93696439
1.4649959 0.23843904 0.93678123
1.4667064 0.23833174 0.93677068
1.4690589 0.2390241 0.93690556
1.470976 0.23904091 0.93668979
1.4729912 0.23896602 0.93680966
1.475177 0.23889448 0.93691182
1.4769588 0.23897 0.93670231
1.4785125 0.23908795 0.93673515
1.483117 0.23884431 0.9368251
1.4847089 0.23903334 0.93688828
1.4893838 0.23906249 0.9369809
1.490208 0.23841199 0.936979
1.4536645 0.24035001 0.936988
1.4547002 0.24095911 0.93698895
1.4594487 0.24089296 0.93690997
1.4608253 0.24099046 0.93688887
1.4632413 0.2405605 0.93697602
1.4650309 0.24089971 0.93680149
1.4669136 0.24088986 0.93679833
1.4690681 0.24100339 0.93693084
1.4709847 0.24107215 0.93673694
1.4729596 0.24105152 0.93676859
1.475508 0.24153286 0.9369548
1.477011 0.24173653 0.93673277
1.4786769 0.2415624 0.9367643
1.4832722 0.24099015 0.93686169
1.4848287 0.24080183 0.93692017
1.4894274 0.24023984 0.93698192
1.4905106 0.24007374 0.93699235
1.4596322 0.24375591 0.93689162
1.4607724 0.24360624 0.93692535
1.4639231 0.24328624 0.93699616
1.4650251 0.24320801 0.93684286
1.4669709 0.24302144 0.93681002
1.4690597 0.24271566 0.9369511
1.4709754 0.24263304 0.93676871
1.4729918 0.24241582 0.93674815
1.4742903 0.24219659 0.93695474
1.4768753 0.2427651 0.93674672
1.4787374 0.24304213 0.936786
1.4833932 0.24291499 0.93687171
1.4847533 0.24285027 0.93691564
1.4547637 0.24439652 0.93699771
1.4596839 0.24487856 0.93694264
1.4609219 0.24509932 0.93693018
1.462065 0.245664 0.93697399
1.465255 0.24488848 0.93685567
1.4669598 0.24492112 0.9368093
1.4687285 0.2446464 0.93696511
1.4710073 0.24478263 0.93681031
1.4729962 0.24465951 0.93677098
1.4746114 0.244491 0.93696278
1.4771048 0.24498886 0.9367969
1.4789445 0.24517879 0.93679851
1.4836005 0.24533539 0.93689883
1.4849803 0.24538739 0.93691754
1.4860711 0.2456075 0.93698698
1.489653 0.245215 0.936993
1.4599353 0.24701074 0.93697274
1.4610684 0.24710171 0.93692833
1.462157 0.247251 0.9369657
1.4654927 0.24741893 0.93688744
1.4670125 0.2474207 0.93681806
1.4686844 0.24726816 0.93693769
1.4711366 0.24721798 0.9368394
1.4729822 0.24710658 0.93676722
1.474399 0.24740079 0.93693799
1.4772006 0.24695437 0.93682146
1.4789726 0.24692704 0.93680727
1.4836148 0.2467335 0.93691039
1.4848971 0.2468051 0.9369188
1.486062 0.24699669 0.93699372
1.4599454 0.2486165 0.93694401
1.4610752 0.24892849 0.93694013
1.4621708 0.24896896 0.93693936
1.4655004 0.24871525 0.93687457
1.4670501 0.24875079 0.9368394
1.4685072 0.24891432 0.93689191
1.4712981 0.24890389 0.93684626
1.4729861 0.24883385 0.93678057
1.4743676 0.24925634 0.93690586
1.4774128 0.24899887 0.93684655
1.4789318 0.2490062 0.93681979
1.4801205 0.2491466 0.93690842
1.4838575 0.24866834 0.93693441
1.4849133 0.24886216 0.93693638
1.4860644 0.24912199 0.93699801
1.459988 0.25018901 0.93696898
1.4612367 0.25091726 0.9369548
1.4623135 0.25118276 0.93696564
1.4657063 0.25079817 0.93692607
1.4669673 0.25086787 0.93685973
1.4684913 0.25085264 0.93687552
1.4715486 0.25077194 0.93688142
1.4730834 0.25093603 0.93682027
1.4744112 0.25128981 0.93687302
1.4776391 0.25168017 0.93690014
1.4789968 0.25154516 0.93687075
1.4802644 0.25142297 0.93687052
1.483991 0.25091761 0.93694234
1.4850224 0.250837 0.93695182
1.4860792 0.25070092 0.93699032
1.4614583 0.2535632 0.93697953
1.4626449 0.25344893 0.93697149
1.4658195 0.25319219 0.93695593
1.4669973 0.25305083 0.93688309
1.4685241 0.25286648 0.93688923
1.4716901 0.25249994 0.93690801
1.4729798 0.25242248 0.93681479
1.4745233 0.25221002 0.93688536
1.4975077 0.21179502 0.93758696
1.4990193 0.21142007 0.93787116
1.5009956 0.21119486 0.9378708
1.5023838 0.21104774 0.93789649
1.4835287 0.21383108 0.93710214
1.4846927 0.21373409 0.93705016
1.4879353 0.21335965 0.93700564
1.4888767 0.21324304 0.9370262
1.4911861 0.21294886 0.93713516
1.4930165 0.21249986 0.93750775
1.4949907 0.21228418 0.93749303
1.496631 0.21232705 0.9373982
1.4989821 0.21296737 0.93782449
1.5010245 0.21289705 0.9378686
1.5025383 0.21300754 0.93787789
1.4658177 0.21595895 0.93713695
1.4660991 0.21594942 0.93710124
1.4712827 0.21540427 0.93701601
1.4721191 0.21541902 0.93700737
1.4771128 0.21457095 0.9372859
1.4783999 0.21452801 0.9371444
1.4835408 0.21506482 0.93708533
1.4847296 0.21516806 0.93706828
1.4893349 0.21482933 0.93703264
1.4911526 0.21506682 0.93711746
1.4930434 0.21502824 0.93749553
1.4949884 0.21491325 0.93754208
1.4969891 0.21500723 0.93743461
1.4989802 0.21501443 0.93780071
1.5010457 0.21488796 0.93788689
1.5026492 0.21496177 0.93787426
1.4457977 0.21789673 0.93785369
1.449139 0.2177133 0.93753958
1.4510072 0.21771517 0.93720663
1.4530196 0.21724668 0.93756557
1.4550229 0.21700278 0.93761128
1.4560834 0.21729726 0.9370231
1.4593996 0.21686016 0.937096
1.4605093 0.2167248 0.93710077
1.4655911 0.21611378 0.93702978
1.4662638 0.21652348 0.93703067
1.4718243 0.21710402 0.93703747
1.4722114 0.21702807 0.93702102
1.4772881 0.21701986 0.93724519
1.4786017 0.2169735 0.93719935
1.4835678 0.21709256 0.93709487
1.4848908 0.21707669 0.93709892
1.4868277 0.21749584 0.93701744
1.4893478 0.21697396 0.93702763
1.4910903 0.21694537 0.93708968
1.4930022 0.21702436 0.93743986
1.4949882 0.21694247 0.93756878
1.4970222 0.21707837 0.93743199
1.4989543 0.21701616 0.93777704
1.5010825 0.21689947 0.93791676
1.5027045 0.21695277 0.937886
1.4433068 0.2183238 0.93782705
1.444858 0.21829857 0.93764031
1.4491611 0.21901479 0.93756539
1.4510076 0.21906243 0.93721485
1.4529983 0.21895525 0.9375177
1.4550501 0.2190593 0.93765408
1.4562317 0.21910962 0.93710136
1.4594679 0.21904038 0.93708062
1.4606161 0.21918166 0.9370963
1.4653578 0.21888316 0.93702167
1.4664357 0.21917732 0.93703455
1.471329 0.21968199 0.937002
1.4722426 0.21882744 0.93701619
1.4773726 0.21899886 0.93725365
1.4787455 0.21904169 0.93720943
1.4836997 0.21913595 0.9370997
1.4849738 0.21906318 0.93713218
1.4863813 0.2194833 0.93703943
1.4892777 0.21900399 0.93702203
1.4911366 0.21898898 0.93707699
1.4930159 0.2189505 0.9373982
1.4950042 0.21891294 0.93759221
1.4969463 0.21903315 0.93743783
1.4989386 0.21903513 0.9377442
1.501134 0.21886349 0.93794471
1.5028697 0.21903083 0.9379124
1.4434325 0.22099116 0.93781906
1.4449788 0.22096534 0.93762732
1.4462844 0.22120489 0.93783271
1.4493006 0.22103131 0.93762773
1.4510127 0.22109665 0.93721092
1.4530027 0.22097087 0.93740547
1.4550856 0.22103152 0.93769139
1.4563229 0.22096984 0.93715483
1.4595098 0.22099262 0.93707353
1.4607472 0.2210806 0.93709737
1.4656575 0.2213915 0.93707049
1.466581 0.22137566 0.9370265
1.4717199 0.22096539 0.9370268
1.4725554 0.2208841 0.93703365
1.4774933 0.22096986 0.93722355
1.4788249 0.22092453 0.93725187
1.483768 0.2211841 0.93705356
1.4849725 0.22104882 0.93714631
1.4864672 0.2209142 0.93703586
1.4892836 0.22084425 0.93702936
1.4911425 0.22106589 0.93708152
1.493018 0.22104231 0.93734044
1.4949896 0.22100522 0.93760943
1.4969672 0.22105959 0.93745404
1.4989768 0.22102782 0.93768305
1.5011826 0.22078426 0.93795109
1.5029445 0.22100478 0.93792462
1.5040255 0.22142999 0.93797559
1.443487 0.22297212 0.93784344
1.4450039 0.22298485 0.9376148
1.4465855 0.22307514 0.93777698
1.4494014 0.22304183 0.9376412
1.450984 0.22308825 0.937204
1.4529752 0.22301465 0.93733197
1.4550304 0.22298729 0.93769878
1.4564253 0.22298765 0.93722105
1.4597002 0.22301517 0.93711084
1.4609486 0.22305557 0.93708861
1.465759 0.22330701 0.93701971
1.4667169 0.22306412 0.9370147
1.471875 0.2237235 0.93704051
1.4726177 0.22280133 0.93702745
1.4776039 0.22291797 0.93725592
1.4789513 0.22296889 0.93725067
1.4800665 0.22339371 0.93705589
1.483845 0.22309825 0.93704641
1.4850298 0.22305349 0.93714345
1.4864442 0.22318625 0.93704063
1.4892509 0.22291571 0.93702942
1.4910481 0.2229977 0.93708342
1.493003 0.22299507 0.93730474
1.4949723 0.22289574 0.93763989
1.496974 0.22298793 0.93747211
1.4989733 0.22301644 0.93767422
1.5010061 0.22280523 0.93795866
1.5029417 0.22300299 0.9379344
1.5042256 0.22286037 0.93792874
1.4435833 0.22480094 0.93787026
1.44502 0.22488418 0.93761832
1.4467862 0.22504489 0.93774933
1.4493953 0.22500357 0.93773943
1.4509696 0.22507255 0.93725044
1.4529693 0.22502442 0.93727052
1.4550114 0.22506966 0.93775702
1.4564911 0.22507666 0.93732619
1.4597998 0.22501741 0.93707675
1.4609442 0.2251254 0.93708354
1.4658439 0.2246013 0.93702197
1.4666575 0.22497539 0.93702269
1.4729176 0.22500171 0.93701643
1.4777193 0.22482696 0.93725383
1.4789908 0.2248704 0.93729329
1.4801216 0.22496301 0.93706948
1.4838649 0.2246958 0.93702352
1.4850215 0.22502087 0.93717086
1.4866354 0.22498018 0.93707043
1.4890591 0.22492051 0.9370349
1.4910784 0.22497964 0.93708479
1.4930308 0.22504726 0.93729305
1.4949859 0.22494125 0.93767345
1.4969822 0.22503386 0.93752223
1.4990052 0.22510451 0.93763459
1.500417 0.22517613 0.93795633
1.5030357 0.22503839 0.93794996
1.5042002 0.22503272 0.93796241
1.4436779 0.22697873 0.93790972
1.4450068 0.22696017 0.93762743
1.4468584 0.22702642 0.93769735
1.4494752 0.22697476 0.93777859
1.4509575 0.22705881 0.93727136
1.4529402 0.22701675 0.93716544
1.454982 0.2270208 0.93774265
1.4566194 0.22702797 0.93739736
1.4598883 0.22671229 0.93708062
1.4610054 0.22696593 0.9370954
1.4621115 0.22715119 0.93703419
1.465902 0.22688401 0.93701649
1.4667652 0.22724664 0.93702269
1.472981 0.22711025 0.93702734
1.4778614 0.22688088 0.93723381
1.4789875 0.22696312 0.93735951
1.4802523 0.22704138 0.93712717
1.4851317 0.22709046 0.93715978
1.4867752 0.22711949 0.93708289
1.4893092 0.22695456 0.93703169
1.4910456 0.22703397 0.93707991
1.49303 0.22700211 0.93726933
1.4950039 0.22695777 0.93766057
1.4969474 0.22699246 0.9375754
1.4989833 0.22706252 0.93760818
1.5003551 0.22688907 0.9379245
1.5032327 0.22696368 0.93796033
1.5042026 0.22679542 0.93797284
1.440793 0.22903988 0.93796897
1.4437895 0.22867845 0.93791181
1.4450102 0.22886194 0.93766314
1.4466602 0.22899595 0.93759644
1.4493387 0.22900511 0.93789846
1.4509567 0.22901577 0.93732107
1.4529632 0.22900602 0.93715078
1.4550037 0.22900923 0.9376927
1.4567475 0.22903195 0.93742704
1.4584121 0.229553 0.93700701
1.4611892 0.22905242 0.93708533
1.4622512 0.22909355 0.93704545
1.4671667 0.22924417 0.93702614
1.4733608 0.22905068 0.93702358
1.4779218 0.22872721 0.93712634
1.4790035 0.22896086 0.93739349
1.4804038 0.22902182 0.93720335
1.485211 0.22907186 0.93716085
1.4868795 0.22907153 0.93711334
1.4891522 0.22904943 0.93703729
1.4910508 0.22901261 0.93709338
1.4930053 0.22900134 0.93722469
1.4949827 0.22895214 0.93764657
1.4969558 0.22901928 0.93761033
1.4989951 0.2290114 0.93758976
1.5003902 0.22904576 0.93787986
1.5034562 0.22891796 0.93795943
1.5042247 0.22878475 0.93794984
1.4396455 0.23088621 0.93798143
1.4410068 0.23104987 0.93795574
1.4431647 0.23091446 0.93797082
1.4449825 0.23092259 0.93769532
1.446811 0.23102476 0.93757188
1.4490919 0.231029 0.93793017
1.4509783 0.23109546 0.93739533
1.4529998 0.23111601 0.9371286
1.4550284 0.23099722 0.93763494
1.4569007 0.23101638 0.93750268
1.4580171 0.23092501 0.93702501
1.4611757 0.23097265 0.93710357
1.4623553 0.23098159 0.93708354
1.4673731 0.23079807 0.93702871
1.4736022 0.23086768 0.93703038
1.4741943 0.23129 0.93700397
1.4790609 0.23092495 0.9373731
1.4804813 0.23098211 0.93727404
1.485248 0.23098785 0.9371646
1.4869746 0.23097925 0.93712687
1.4891143 0.23091787 0.93703657
1.4910229 0.23101717 0.93709308
1.4930304 0.23103043 0.93720442
1.495012 0.23097594 0.93763584
1.4969689 0.23106503 0.93764567
1.4989918 0.230994 0.93759042
1.5004731 0.23102035 0.93786234
1.5034292 0.23098683 0.93797576
1.5042804 0.23099712 0.93797213
1.4399265 0.23271999 0.93798852
1.4411298 0.23294811 0.93794578
1.4428138 0.23302311 0.93796945
1.4450219 0.23292221 0.93773282
1.4469029 0.2329302 0.93757004
1.4487342 0.23301464 0.93795013
1.4509898 0.23305325 0.93748188
1.4530036 0.23310812 0.93712234
1.4550391 0.23302189 0.93756682
1.456977 0.23304899 0.93756402
1.4580706 0.23380749 0.93705022
1.4612763 0.23294565 0.93710595
1.4624813 0.23295072 0.93709433
1.4672711 0.23296745 0.93702972
1.4684575 0.23335226 0.93703634
1.473529 0.23274806 0.93702924
1.4742233 0.23318696 0.93701988
1.4791746 0.2329362 0.9373982
1.4806819 0.23302759 0.9373188
1.4853796 0.23295589 0.93716645
1.4869851 0.23297982 0.93715703
1.4891498 0.23292391 0.93705201
1.4910496 0.23304075 0.93708825
1.4930323 0.23306824 0.93722737
1.495456 0.23362288 0.93769538
1.4969611 0.23373012 0.93771565
1.498994 0.23358868 0.9375897
1.500561 0.2332518 0.93786204
1.5037243 0.23283236 0.93797183
1.50437 0.2331254 0.93798923
1.4412452 0.23496231 0.93793863
1.4425546 0.2350142 0.93796355
1.4450756 0.2348931 0.93775547
1.4469635 0.23496157 0.93753052
1.4487431 0.23516671 0.93794256
1.451142 0.23494011 0.93753386
1.4530094 0.23501676 0.93712562
1.4550138 0.23501037 0.93747622
1.4570115 0.23506756 0.93760592
1.4581897 0.23517081 0.93707156
1.461418 0.23490439 0.93709308
1.4625598 0.23494498 0.93710124
1.4675645 0.23508669 0.9370178
1.4683552 0.23513047 0.9370417
1.4736072 0.23514076 0.93702412
1.4742612 0.23521428 0.93702626
1.4792684 0.23494923 0.9374187
1.480608 0.23574093 0.93746746
1.4855506 0.23551729 0.93714434
1.4869967 0.2353349 0.937208
1.4890233 0.23521365 0.93705124
1.4910793 0.23499092 0.9370755
1.493021 0.23470138 0.93722779
1.494786 0.23434913 0.9375391
1.4969939 0.2350795 0.93772572
1.4990073 0.23501804 0.93760073
1.5006484 0.23501626 0.93781483
1.5036411 0.2348492 0.93799084
1.5048407 0.23499653 0.93798107
1.4412787 0.23684624 0.93794024
1.4426707 0.23690958 0.93794715
1.4451723 0.23698442 0.93777466
1.4470036 0.23701498 0.93753278
1.4486967 0.23715745 0.93787396
1.4512975 0.23694062 0.93756986
1.4529883 0.23698507 0.93714273
1.4550167 0.23703398 0.93738538
1.4570289 0.23710471 0.9376936
1.4582272 0.23710534 0.9371286
1.4615769 0.236994 0.9370625
1.462684 0.23700729 0.93712032
1.4678509 0.23772593 0.93702042
1.4685842 0.23774116 0.93702137
1.4733552 0.23714785 0.93701375
1.4744409 0.23704094 0.93703657
1.4793416 0.23627385 0.93740803
1.4811147 0.23626915 0.93725419
1.4821465 0.237734 0.93703306
1.4855509 0.23704895 0.93710834
1.4869809 0.23696189 0.93720204
1.4889235 0.23698539 0.93707424
1.4909858 0.23698197 0.93709618
1.493036 0.23703617 0.93719876
1.4949644 0.23694606 0.93749642
1.4969878 0.23706016 0.93777961
1.4990358 0.23708615 0.93763697
1.5007167 0.23706636 0.93783861
1.5036989 0.237786 0.93797302
1.5050094 0.23754604 0.93798125
1.441291 0.23897433 0.93794888
1.4426885 0.2390234 0.93793261
1.4451927 0.23931977 0.93786734
1.4473842 0.23970206 0.93752301
1.4488149 0.23957355 0.93779814
1.4513253 0.23935072 0.93767852
1.4529622 0.2394762 0.93718004
1.4549524 0.23921143 0.93728727
1.4570049 0.23874635 0.93769997
1.4583743 0.238924 0.93717211
1.4617091 0.2386312 0.93705279
1.4628365 0.23845026 0.93713403
1.4676797 0.23903674 0.93701667
1.4686446 0.2391495 0.93702209
1.473547 0.23887533 0.93701571
1.4747312 0.23901168 0.93703979
1.4795126 0.23882014 0.93743718
1.4810306 0.23895451 0.93741256
1.4821556 0.2390276 0.93704993
1.4856324 0.23902328 0.93708563
1.4870062 0.23906823 0.93722576
1.4889593 0.23902789 0.93710685
1.4912475 0.23966895 0.93714291
1.493016 0.23948412 0.93723518
1.4949893 0.23915169 0.93745011
1.4969977 0.2387452 0.93778622
1.4990228 0.23861021 0.93764943
1.5007781 0.23828138 0.93785298
1.4412944 0.24047361 0.93796748
1.4426261 0.24037012 0.93792582
1.4454823 0.2401742 0.93780762
1.4467455 0.24022187 0.93756753
1.4488347 0.24107422 0.93773639
1.4515246 0.24091941 0.93768102
1.4530036 0.24102874 0.93718743
1.4549733 0.24099271 0.93724436
1.4570144 0.24103472 0.93770158
1.4585278 0.24109522 0.93723911
1.4617333 0.24113208 0.93709725
1.4629864 0.24093664 0.93713087
1.4641047 0.2414577 0.93704283
1.4678588 0.24116091 0.93703628
1.468904 0.24123015 0.93704253
1.4737918 0.24084644 0.93702519
1.4750998 0.24173872 0.93706495
1.4796722 0.24100615 0.93744916
1.4810011 0.24085708 0.93750668
1.4822967 0.24100056 0.93709195
1.4857264 0.24064098 0.93707764
1.4869848 0.24035119 0.93727958
1.48894 0.240254 0.93711787
1.4904425 0.24024819 0.93708616
1.4930143 0.24096505 0.93726444
1.4949584 0.24085905 0.93745685
1.4969469 0.24085858 0.93784219
1.4990351 0.24075209 0.93771267
1.5008491 0.2408257 0.93781936
1.4415389 0.24284144 0.93794554
1.4427353 0.2429582 0.9379195
1.4453313 0.24311833 0.93791145
1.4469595 0.2429125 0.93758678
1.4486368 0.24311708 0.93759251
1.4517276 0.24292968 0.93779582
1.4529798 0.24305995 0.93729818
1.4551809 0.24325305 0.93729252
1.4570005 0.24350762 0.93774819
1.4586543 0.2435932 0.93730533
1.4617469 0.24338521 0.9371134
1.4629898 0.24322763 0.93715954
1.4641283 0.24315716 0.93705106
1.4678845 0.24277712 0.93702012
1.4688722 0.24271812 0.93703359
1.4739156 0.24256524 0.93703824
1.4747487 0.24236079 0.93703842
1.476082 0.243927 0.93702197
1.4796997 0.24283053 0.93735677
1.4809883 0.24283449 0.93756819
1.4824406 0.24300599 0.9371863
1.4855924 0.24280395 0.93704921
1.4870266 0.24276403 0.93729281
1.4889774 0.24295393 0.93718374
1.4909127 0.24286431 0.93715
1.4930677 0.24309903 0.93727583
1.4950649 0.243295 0.93744361
1.4970676 0.24331793 0.93783981
1.4990149 0.2432224 0.93775624
1.5009077 0.24310906 0.93782121
1.4417102 0.24527174 0.93796182
1.4430045 0.24514401 0.93792534
1.4451822 0.24488157 0.93795359
1.4469879 0.2448871 0.93763685
1.4485925 0.24480951 0.93751448
1.4516709 0.24420694 0.9379338
1.4529908 0.24443072 0.93734598
1.4549124 0.24436915 0.93711978
1.4570445 0.24498197 0.93773776
1.4587753 0.24506871 0.93737996
1.4616296 0.2447421 0.93708718
1.463024 0.24480794 0.93719167
1.4642774 0.2449962 0.93708116
1.467865 0.24408001 0.937011
1.4690368 0.24487384 0.93705821
1.4700495 0.2449415 0.93703449
1.4751167 0.24495144 0.93708146
1.4761355 0.24548084 0.93711019
1.4799252 0.24560326 0.93716651
1.4810787 0.24539228 0.93758714
1.4825593 0.24539754 0.93732363
1.4856718 0.24517842 0.93703461
1.4870281 0.24516653 0.93725765
1.4889767 0.24518234 0.93722534
1.4909955 0.24501786 0.93716335
1.4930217 0.24489975 0.9372558
1.4949638 0.24475966 0.93742853
1.4969631 0.24490882 0.93783337
1.4990553 0.24494322 0.9377951
1.5009251 0.24494313 0.9378202
1.5021555 0.24591051 0.93797553
1.4417576 0.24642074 0.93795109
1.4430201 0.24695466 0.93793988
1.4450901 0.24682891 0.93796146
1.4469963 0.24686912 0.93767548
1.4486978 0.24682848 0.93755788
1.4507823 0.24650449 0.93798149
1.4529355 0.246704 0.93747938
1.4550511 0.24675077 0.93716931
1.457108 0.24711274 0.93769342
1.4589311 0.24711998 0.93749911
1.4611648 0.24737725 0.93703628
1.4630616 0.24727479 0.93719602
1.4644831 0.24749517 0.93713313
1.4692559 0.24735567 0.93707061
1.4702303 0.24738468 0.93705064
1.4751388 0.24694422 0.93709183
1.4763057 0.24685757 0.93706143
1.4799438 0.24663749 0.93713403
1.4809607 0.24685554 0.93758065
1.4826846 0.24694459 0.93733525
1.4855179 0.24736641 0.93701446
1.4870114 0.24689174 0.9372763
1.4890196 0.24716711 0.93728638
1.4910052 0.24715699 0.93719298
1.4929792 0.2469901 0.93727988
1.4950104 0.24694391 0.9374218
1.4969743 0.2469179 0.93781251
1.499091 0.24683033 0.93786985
1.5009116 0.24705608 0.93782932
1.4431614 0.24945675 0.93793696
1.4445859 0.24951282 0.93797743
1.4470555 0.24934086 0.93776536
1.4489695 0.24932605 0.9375692
1.4507701 0.24904115 0.93797237
1.4531283 0.24913208 0.93750674
1.4549872 0.24913393 0.93718082
1.4570327 0.24894033 0.93763274
1.4589882 0.24887477 0.93752366
1.4607241 0.24886884 0.9370352
1.463088 0.24877274 0.93717963
1.4645164 0.24872002 0.9371376
1.466493 0.248207 0.93702102
1.4693146 0.24899228 0.93708223
1.4703932 0.2490429 0.93707442
1.4752531 0.2490841 0.93709147
1.4764535 0.24906921 0.93708849
1.4811158 0.2488988 0.93754119
1.4829209 0.24903212 0.93740487
1.4856313 0.24936095 0.93702644
1.4870909 0.24904262 0.93728173
1.4890044 0.24939494 0.93737459
1.4913032 0.24968496 0.9372189
1.4930084 0.24956606 0.93727541
1.4949996 0.24924305 0.93744099
1.4969497 0.24880596 0.93778539
1.4991324 0.24849674 0.93786919
1.5008625 0.24834581 0.93781936
1.5020784 0.24812636 0.93797338
1.4430772 0.25069696 0.93793052
1.4443141 0.25064561 0.93797374
1.4472141 0.25079384 0.93775177
1.4489405 0.25088492 0.93755358
1.45031 0.25091749 0.93788999
1.4532455 0.25091612 0.93754572
1.4549907 0.25086927 0.93720841
1.4569825 0.25101492 0.93756843
1.459036 0.25094616 0.93762112
1.4607214 0.2510314 0.93706012
1.4631709 0.25089651 0.93718642
1.4647139 0.25086072 0.93717724
1.4694424 0.25098437 0.93707985
1.4705943 0.25094223 0.93711585
1.4755481 0.25173166 0.93710709
1.4766638 0.25162223 0.93717957
1.4812429 0.25086284 0.93756306
1.4829752 0.25073463 0.93747216
1.4849317 0.25072321 0.93701982
1.4870331 0.25041991 0.93724161
1.4889621 0.25012138 0.93737751
1.4906237 0.25005984 0.93718398
1.4433692 0.25272325 0.93795663
1.4443505 0.25291714 0.93795276
1.4473664 0.25298578 0.93781233
1.4489468 0.25300822 0.93759376
1.450206 0.25316867 0.93770975
1.4535177 0.25317365 0.93766052
1.4549868 0.2530528 0.93726873
1.457341 0.25353536 0.93763405
1.4590381 0.25334474 0.93778062
1.460917 0.25356647 0.93713951
1.4630408 0.25333336 0.93713456
1.4648554 0.25307423 0.93721247
1.4695021 0.25264183 0.93708509
1.4707154 0.25247657 0.93711185
1.475121 0.25203565 0.93705696
1.4436616 0.25500366 0.93798596
1.4444532 0.25505292 0.9379521
1.4474394 0.254787 0.9378565
1.4490036 0.2547749 0.9375968
1.4502953 0.25453272 0.93772978
1.4535689 0.25418875 0.93770599
1.4549938 0.25433594 0.93722647
1.4564707 0.25417751 0.93721545
1.4993796 0.21154261 0.93801039
1.5033747 0.21066871 0.93828815
1.499606 0.21302484 0.93802869
1.5001495 0.21269885 0.93801802
1.5035508 0.21306027 0.93826586
1.4997698 0.21486238 0.93801433
1.5005198 0.21522808 0.93803155
1.5036464 0.2150484 0.93821192
1.4997104 0.21683669 0.93802434
1.5005428 0.21707669 0.93803704
1.5037296 0.21696258 0.93818212
1.499745 0.2186617 0.93802243
1.5007862 0.2190357 0.93803835
1.5036813 0.21918735 0.93807745
1.499745 0.22025701 0.93800849
1.5007982 0.22100256 0.93804497
1.5036366 0.22087371 0.9380278
1.4997513 0.22268599 0.93801469
1.5009698 0.22299573 0.93805176
1.5034473 0.22324881 0.93804836
1.5051016 0.22298741 0.93839169
1.499946 0.22400901 0.93805099
1.5011569 0.22488458 0.93806124
1.5026548 0.22509354 0.93803287
1.5050769 0.22496685 0.93833756
1.5012244 0.22699481 0.93807721
1.5027958 0.2271193 0.93805093
1.5050302 0.22700846 0.93827051
1.5013074 0.22896579 0.93809581
1.5027411 0.22907542 0.93807864
1.5050836 0.22903492 0.93826294
1.5014271 0.23102474 0.93810606
1.5028977 0.23110355 0.9381026
1.5051081 0.23108742 0.93816465
1.4441673 0.23300423 0.93802649
1.4479121 0.23238584 0.93804401
1.4491161 0.23299773 0.9380641
1.4500583 0.23374566 0.93807167
1.5015219 0.23299745 0.9380939
1.502906 0.23286885 0.93811399
1.5050417 0.23260698 0.93813169
1.506515 0.23244366 0.93858206
1.4405528 0.23493811 0.93803889
1.4431386 0.23490191 0.93805832
1.4441953 0.2352228 0.93804759
1.4491228 0.23488355 0.93807757
1.4502256 0.23519237 0.93810606
1.5015889 0.23484099 0.938097
1.5029781 0.23505084 0.93813032
1.5050324 0.23500025 0.93814236
1.4404556 0.23707035 0.93805289
1.4433526 0.23700124 0.93804765
1.4442464 0.2370449 0.93803835
1.4492724 0.23687193 0.93807763
1.4503533 0.23704979 0.93810374
1.4566903 0.23639701 0.93802273
1.5017416 0.23765092 0.9381001
1.5029875 0.23758866 0.93819314
1.5050187 0.23742624 0.93811566
1.506989 0.23692502 0.93860692
1.440629 0.2390447 0.9380464
1.4436845 0.23958179 0.93809521
1.4444741 0.2398873 0.93806911
1.4493489 0.23930269 0.93805128
1.450354 0.23918031 0.93810779
1.5016893 0.23824184 0.9380604
1.5029988 0.23906776 0.93824309
1.5050206 0.23885782 0.93818289
1.5068768 0.23892328 0.9385168
1.4407191 0.24050044 0.93807948
1.4434288 0.24024962 0.93803692
1.4444044 0.2407911 0.93807119
1.4493405 0.24090146 0.93807238
1.4506058 0.24105753 0.93813121
1.5017674 0.24062259 0.9380728
1.5030645 0.2411487 0.9382754
1.5050191 0.2410416 0.93819863
1.5071528 0.24136782 0.93856281
1.4407052 0.24300209 0.93813711
1.4434992 0.24275821 0.93804622
1.4446911 0.24292894 0.93805724
1.4495606 0.24296103 0.93809927
1.4509431 0.24354503 0.93823457
1.457592 0.24325299 0.93800402
1.498071 0.24367701 0.93801701
1.5017596 0.24315757 0.93803489
1.5029964 0.24294181 0.93824053
1.5050108 0.24284382 0.93821549
1.506941 0.24276653 0.93849206
1.4428619 0.24507868 0.93802828
1.4448936 0.24486792 0.93805563
1.4496477 0.24432705 0.9380787
1.4508479 0.24420455 0.93812174
1.4980769 0.24482799 0.93800998
1.5017573 0.244625 0.93803358
1.5029829 0.24500671 0.93824553
1.5050198 0.24491611 0.93828613
1.5070026 0.24491273 0.93844962
1.4427073 0.24690248 0.93804276
1.4449556 0.2468724 0.9380694
1.4497758 0.24649826 0.93814862
1.4509407 0.24690868 0.93812883
1.452198 0.24768549 0.938079
1.4976161 0.24683301 0.93801302
1.4984398 0.24760634 0.93802351
1.5018269 0.24755576 0.93805265
1.5031587 0.24761721 0.93825722
1.5050186 0.24736305 0.9383387
1.5070231 0.24708822 0.93846238
1.4426188 0.24958409 0.93802691
1.4451383 0.24934725 0.93807632
1.4462632 0.24954006 0.93803769
1.449904 0.2489135 0.93812752
1.4510579 0.24912718 0.93816024
1.4521941 0.24912341 0.93808568
1.4977796 0.24851058 0.93801504
1.4982969 0.24850662 0.93801594
1.5018387 0.24808902 0.93805158
1.5022482 0.24803618 0.93806523
1.4426991 0.25077 0.93804538
1.4451168 0.25083447 0.93807703
1.4462674 0.25122219 0.93804115
1.4499969 0.25000799 0.93811297
1.4510449 0.25107926 0.93817109
1.4523455 0.25135088 0.93815285
1.4426817 0.25304538 0.938052
1.4452217 0.25285339 0.93808752
1.4463621 0.25314555 0.93809193
1.4513251 0.25337082 0.93821907
1.4525714 0.25380918 0.93823534
1.4587865 0.25308776 0.93800855
1.4429231 0.25513583 0.9381001
1.4451896 0.2548863 0.93806684
1.4464644 0.25475213 0.93807113
1.4513137 0.25410023 0.93823183
1.4528099 0.25404006 0.93807477
