# .PCD v0.7 - Point Cloud Data file format
VERSION 0.7
FIELDS x y z normal_x normal_y normal_z curvature
SIZE 4 4 4 4 4 4 4
TYPE F F F F F F F
COUNT 1 1 1 1 1 1 1
WIDTH 577
HEIGHT 1
VIEWPOINT 0 0 0 1 0 0 0
POINTS 577
DATA ascii
1.4969819 0.2189593 0.94391644 0.025786355 -0.0057828226 0.99966276 1.694952e-05
1.4989958 0.21883155 0.94385964 0.027084174 -0.0061399522 0.99962044 1.6098818e-05
1.5010153 0.21885949 0.94380546 0.027748423 -0.0063474695 0.9995997 3.8505907e-05
1.5029858 0.21893601 0.94374901 0.028401898 -0.0066858591 0.99957722 4.6559126e-05
1.5049473 0.21931411 0.94369304 0.028775996 -0.0071109058 0.99956274 4.5682566e-05
1.507012 0.21901174 0.94362521 0.029188696 -0.0074943271 0.99954778 5.6600373e-05
1.5089587 0.21858481 0.94355977 0.029493101 -0.0076597063 0.99953794 6.1943851e-05
1.5111381 0.21902552 0.94349819 0.029658806 -0.0080101341 0.99953073 9.3943076e-05
1.5127991 0.21908301 0.94346035 0.029890705 -0.0080187535 0.99952179 0.00016380115
1.5151105 0.219338 0.94340134 0.03021889 -0.0066443556 0.9995265 0.00036091497
1.5170979 0.21919021 0.94336677 0.030752018 -0.0046938728 0.99956733 0.00061360456
1.5189135 0.21899314 0.94332302 0.031191805 -0.0036351096 0.99960077 0.00071977434
1.5209867 0.21883716 0.94326395 0.031700481 -0.001704437 0.99965584 0.00081871822
1.5231119 0.2187793 0.94320816 0.032930903 0.002239476 0.99978769 0.001042724
1.5250096 0.21894082 0.94314694 0.033907875 0.005867729 0.99987924 0.0011187282
1.5268323 0.21965919 0.94307882 0.034895357 0.0084561193 0.99986619 0.0010306836
1.5291326 0.2193528 0.94300282 0.036113862 0.011671708 0.99996799 0.0011501268
1.5308908 0.219657 0.94293481 0.036345329 0.011358578 0.99988306 0.0010462777
1.491116 0.22097607 0.94406879 0.02265984 -0.0046601184 0.99975324 1.8406976e-05
1.4933575 0.22112454 0.94401723 0.023238117 -0.0053222827 0.99973768 1.894098e-05
1.4950563 0.22093965 0.9439764 0.024044191 -0.0056744386 0.99971497 1.8777569e-05
1.4969938 0.22129306 0.94392997 0.025175326 -0.0061666006 0.99967885 1.8293757e-05
1.4990132 0.22083412 0.94387269 0.02660704 -0.0064838831 0.99963301 1.6552627e-05
1.5009111 0.22058818 0.94381595 0.027650487 -0.0067472821 0.99959928 1.5957208e-05
1.5029612 0.22101977 0.94375914 0.028209131 -0.0071118111 0.99957973 2.7281529e-05
1.5049639 0.22127141 0.94370663 0.028411794 -0.0073727304 0.99957174 4.6355108e-05
1.5069914 0.22130592 0.94364882 0.028741123 -0.0076578171 0.99955958 4.6015317e-05
1.5090668 0.22109634 0.9435845 0.029096546 -0.0080039697 0.99954629 5.0900046e-05
1.5108771 0.22099574 0.94352537 0.029331734 -0.0084738648 0.99953669 5.9281472e-05
1.5129764 0.22067665 0.94345492 0.029628113 -0.0087614683 0.99952751 8.4694759e-05
1.5149516 0.22092421 0.94340062 0.029795457 -0.0085838512 0.99952161 0.00010613765
1.516945 0.22111839 0.94333774 0.029935302 -0.0080051413 0.99952096 0.00015824012
1.5189759 0.22130288 0.94328159 0.030424923 -0.0074373246 0.99950939 0.00019574622
1.5210754 0.22109495 0.94324112 0.031426914 -0.001919014 0.99956912 0.0005147786
1.5229034 0.22088109 0.94318545 0.032229457 -0.00036628961 0.99958503 0.00057975744
1.5250045 0.22064093 0.94312584 0.033719327 0.0049574487 0.99971557 0.00079011277
1.5269622 0.22085412 0.94305718 0.034567732 0.0063241827 0.99969929 0.00076665258
1.5286063 0.22098514 0.94299954 0.035126992 0.0070086136 0.99968028 0.0007239859
1.5305158 0.22107233 0.94293338 0.035856701 0.0087297279 0.99969316 0.00076531037
1.4915676 0.22233818 0.94406551 0.022530241 -0.0049150656 0.9997555 1.841722e-05
1.4931539 0.22250545 0.94402963 0.022829225 -0.0054344754 0.99974728 1.8904966e-05
1.494873 0.22248623 0.94398952 0.023554251 -0.0058963317 0.99972671 1.9343204e-05
1.4972571 0.2234543 0.94393736 0.024652874 -0.0065811495 0.99969202 1.963981e-05
1.4990431 0.22324182 0.94388872 0.025887232 -0.0069857207 0.99965173 1.8073864e-05
1.5009964 0.22304758 0.9438324 0.027092962 -0.0072554154 0.99961275 1.7063445e-05
1.5030403 0.22294338 0.94377154 0.027880322 -0.0075933272 0.99958628 1.6642565e-05
1.5050129 0.22262055 0.94371283 0.028353095 -0.0075943121 0.9995715 2.96833e-05
1.5069877 0.22301811 0.94365984 0.02853992 -0.0078627914 0.99956381 3.8114678e-05
1.5090336 0.22329882 0.94360447 0.028738871 -0.0079682851 0.99955696 4.6342724e-05
1.5110308 0.22316399 0.94354606 0.028988486 -0.0082257399 0.99954742 5.0786024e-05
1.5130157 0.22304033 0.9434846 0.029299803 -0.0084215403 0.99953645 4.9874256e-05
1.5149159 0.22286859 0.94342417 0.029449727 -0.009590284 0.99952501 6.8088782e-05
1.5169727 0.22269414 0.94335163 0.029656079 -0.010186752 0.99951887 8.3593019e-05
1.5189886 0.22304653 0.94328934 0.030099098 -0.01059289 0.99950612 0.00010281102
1.5210249 0.22335564 0.94322836 0.030480549 -0.011063507 0.99949515 0.00011933461
1.5229672 0.22325811 0.94317085 0.030963374 -0.010767655 0.99948007 0.00013873914
1.5249697 0.22281206 0.94310904 0.031748548 -0.0084921597 0.99946189 0.000200347
1.5268648 0.22347875 0.94305879 0.032045845 -0.010819691 0.99944276 0.00017942536
1.528512 0.22278167 0.94300193 0.032672994 -0.0084711779 0.99943209 0.00021931514
1.5319232 0.22390746 0.94291508 0.032263689 -0.013079259 0.99942583 0.00017018408
1.5332406 0.22361925 0.94287074 0.032278672 -0.013223908 0.99942338 0.00017392734
1.4910406 0.22537702 0.94408971 0.020818513 -0.0052223266 0.99979973 2.1709844e-05
1.4931529 0.22503737 0.94404405 0.022223819 -0.0057013328 0.99975979 1.9648616e-05
1.4950628 0.22463195 0.94399917 0.022986628 -0.0061116209 0.99974066 1.9962441e-05
1.4969784 0.2248345 0.94395441 0.024125924 -0.0066416953 0.99970591 2.0102152e-05
1.4989345 0.2249216 0.94390452 0.025383575 -0.0071740849 0.99966514 1.8973597e-05
1.5010335 0.2254135 0.94385052 0.0264812 -0.0077641234 0.99962795 1.8229643e-05
1.5031108 0.22513334 0.94378746 0.027434396 -0.0081442259 0.999596 1.7694218e-05
1.5049406 0.22492959 0.94373167 0.028003944 -0.0084050633 0.99957716 1.705555e-05
1.5070047 0.22475572 0.94367135 0.028312419 -0.0084782029 0.99956679 2.7863845e-05
1.5090184 0.22489223 0.94361514 0.028621724 -0.0085316235 0.99955666 2.8688719e-05
1.5110773 0.2250092 0.94355839 0.028793449 -0.0081829354 0.99955332 4.5579367e-05
1.5130752 0.22547795 0.94350421 0.029045913 -0.0080370186 0.99954671 4.6625217e-05
1.514999 0.2251081 0.94344491 0.029314578 -0.0079231989 0.99953955 4.9413098e-05
1.5170182 0.22480074 0.94338453 0.029447356 -0.008778356 0.99952859 5.6077002e-05
1.5190024 0.2248095 0.943322 0.029802239 -0.0088937255 0.99951679 5.626876e-05
1.520861 0.22475602 0.94325912 0.030298045 -0.0099145938 0.99949586 7.7938239e-05
1.5231271 0.22518781 0.94319272 0.030898966 -0.0099674463 0.99947697 8.8133842e-05
1.5250876 0.2251098 0.94313139 0.031452488 -0.012825288 0.99945349 0.00013293541
1.5270669 0.22538452 0.9430778 0.032073688 -0.013911746 0.99943262 0.00014494339
1.5289042 0.22582114 0.94302762 0.032725904 -0.013027997 0.9994083 0.00013924504
1.5310612 0.22531566 0.94296688 0.032207083 -0.016463192 0.99942154 0.00015538999
1.5323074 0.22428006 0.94291121 0.032254998 -0.014781245 0.99942291 0.00016102014
1.4932245 0.22697556 0.94405264 0.021849692 -0.0062655932 0.99976557 2.111938e-05
1.4952779 0.22680873 0.94400638 0.02259687 -0.0067363088 0.99974686 2.1589756e-05
1.4969531 0.22680657 0.943968 0.02345477 -0.0070834123 0.9997226 2.1770727e-05
1.4990087 0.22660033 0.94391531 0.024782889 -0.007708461 0.99968028 2.0045829e-05
1.5010464 0.22712159 0.94386542 0.025844861 -0.0083224177 0.99964416 1.937956e-05
1.502982 0.22719438 0.94381034 0.026839405 -0.0087242266 0.99960983 1.8904066e-05
1.5050216 0.22737829 0.94375271 0.027520508 -0.009043375 0.99958658 1.8250066e-05
1.5070168 0.22693588 0.94369006 0.028033156 -0.0092972964 0.99956977 1.7246737e-05
1.5089822 0.22685614 0.94363248 0.028370833 -0.009652433 0.99955791 1.666075e-05
1.5109354 0.22676662 0.94357497 0.028602738 -0.0094821947 0.999551 2.6123325e-05
1.5128368 0.22674693 0.94351989 0.02886829 -0.0092046801 0.99954402 2.8394594e-05
1.5150187 0.22717091 0.94345886 0.029123925 -0.008831094 0.9995383 3.7151447e-05
1.5170033 0.22724414 0.94340098 0.029342476 -0.0086927107 0.9995324 3.6948706e-05
1.5190499 0.22737929 0.94334066 0.029662596 -0.0079389503 0.99952871 4.1972995e-05
1.5210342 0.22770143 0.94328207 0.03023844 -0.0074313795 0.99951649 4.5248027e-05
1.5229756 0.2272692 0.9432143 0.030917678 -0.0055782269 0.99951601 6.0139915e-05
1.5249851 0.226827 0.94314599 0.031712592 -0.0061098938 0.99948436 6.8474888e-05
1.5269886 0.22637761 0.94308555 0.032165106 -0.0094271684 0.99943966 9.8563309e-05
1.5283253 0.22606842 0.94304585 0.032602411 -0.012243832 0.99941397 0.00013687569
1.4953606 0.22960944 0.94402403 0.021535611 -0.0075013926 0.999771 2.3977453e-05
1.4969944 0.22932339 0.943986 0.022640409 -0.008023697 0.99973923 2.3441915e-05
1.4990917 0.22875234 0.94393104 0.024151264 -0.0082538398 0.99969429 2.1129825e-05
1.5010074 0.22891343 0.94388354 0.025145847 -0.0088504776 0.99966139 2.0151974e-05
1.5029092 0.22868626 0.94382662 0.026387332 -0.0092315283 0.99961978 1.9446661e-05
1.505109 0.22907197 0.94376808 0.026971245 -0.010119125 0.99959654 1.9246634e-05
1.5071002 0.22916572 0.94371206 0.027432239 -0.0104778 0.99957955 1.8679639e-05
1.5090131 0.22934435 0.94365996 0.02776067 -0.01076468 0.99956739 1.7855516e-05
1.5115384 0.22983427 0.94359177 0.028135533 -0.01149509 0.99955189 1.7567452e-05
1.5130012 0.22954707 0.943546 0.028459379 -0.011483301 0.99954253 1.6844753e-05
1.5150132 0.22911415 0.94348347 0.028763033 -0.011766591 0.99953204 1.6124099e-05
1.5170183 0.22866201 0.94341964 0.02890427 -0.012235349 0.99952614 1.5636109e-05
1.5189618 0.22823255 0.94335276 0.029485788 -0.0099344477 0.99951982 2.8279946e-05
1.520013 0.22801796 0.943317 0.030006984 -0.0085581411 0.99951315 3.6389531e-05
1.4929808 0.23028956 0.94407755 0.020026958 -0.0068686921 0.99981135 2.4867864e-05
1.4947933 0.23037916 0.94404173 0.021075413 -0.007408855 0.9997828 2.440037e-05
1.4974927 0.23117572 0.94399023 0.02231838 -0.0089009572 0.99974209 2.4865416e-05
1.4990119 0.23088446 0.94395226 0.023440313 -0.0093898913 0.99970806 2.2828586e-05
1.5011616 0.23139386 0.94390428 0.024368474 -0.0098849181 0.99967706 2.1729846e-05
1.5032014 0.23178896 0.94385481 0.025264777 -0.010501517 0.99964476 2.0818121e-05
1.5050048 0.23137435 0.94379795 0.026271451 -0.010738002 0.99961156 2.0084119e-05
1.5070299 0.23094833 0.94373417 0.027128551 -0.010961549 0.99958432 1.942308e-05
1.5090437 0.23049779 0.94367212 0.02755069 -0.011272764 0.99956995 1.8399222e-05
1.5106272 0.23012318 0.94362247 0.027877579 -0.011355001 0.9995597 1.7670422e-05
1.4903601 0.23296902 0.94413304 0.014904408 -0.0063587264 0.99995327 3.172912e-05
1.4976487 0.23308051 0.94400471 0.021696199 -0.0093439315 0.99975568 2.6771775e-05
1.499222 0.23272717 0.94396627 0.022725062 -0.0099227913 0.99972475 2.4649753e-05
1.5010446 0.23232889 0.94391644 0.024140719 -0.01001448 0.99968183 2.2307077e-05
1.5022414 0.23206012 0.94388318 0.024752608 -0.010258027 0.99966186 2.1270174e-05
1.490412 0.23467508 0.94414204 0.013934171 -0.0067485189 0.99997443 3.4491899e-05
1.4931417 0.1368233 0.94279438 -0.37711504 -0.025908273 0.92841339 0.014358192
1.4958943 0.13797526 0.94416231 -0.42136303 -0.0089156814 0.91789949 0.016157761
1.4959815 0.13793294 0.94420147 -0.42355773 -0.0083639389 0.91730005 0.016161362
1.4939255 0.13844575 0.9432736 -0.37049076 -0.023206921 0.93241405 0.015545039
1.4953291 0.13860507 0.94389486 -0.39943191 -0.011628387 0.92447561 0.016274061
1.4964387 0.1390087 0.9444865 -0.40852875 -0.00074243423 0.92425656 0.016865766
1.5130994 0.15501876 0.94619191 -0.082600221 0.17840779 0.98074311 0.01384782
1.6269439 0.15542601 0.94317019 0.10049023 0.23771739 0.96725184 0.012965907
1.6280168 0.15530913 0.94310033 0.1060756 0.23367523 0.96781826 0.013433401
1.5768833 0.1565668 0.94446892 0.030582238 0.25727361 0.96597028 0.00891928
1.4916291 0.17447133 0.94358999 -0.014529513 -0.0063611642 1.0009681 0.003301515
1.4917545 0.17736129 0.94380218 0.017382979 -0.0045482847 0.99994558 0.00098662393
1.4921865 0.17787687 0.94380015 0.019212974 -0.0041709105 0.9998883 0.00095594913
1.491696 0.17898425 0.9438653 0.026061051 -0.005014163 0.99966294 0.00044659144
1.4923362 0.17906925 0.94384938 0.026283586 -0.00479818 0.99965703 0.00042959076
1.4917363 0.18080506 0.94392252 0.032649335 -0.0053477935 0.99945426 1.2481358e-05
1.4922642 0.18078573 0.94390541 0.032829672 -0.005289834 0.99944925 1.2785767e-05
1.4916317 0.18318002 0.94394088 0.033067122 -0.005119714 0.99944305 1.3552861e-05
1.4922476 0.18273605 0.9439171 0.032663099 -0.005097108 0.99945521 1.3135714e-05
1.4917725 0.18445542 0.9439413 0.032794446 -0.0050404165 0.99945158 1.3078217e-05
1.492583 0.18428294 0.94391435 0.033352964 -0.0049792104 0.99943584 1.5695057e-05
1.4916562 0.18910024 0.94396949 0.034531265 -0.0044176714 0.99940419 1.5696232e-05
1.4928199 0.18912204 0.94392806 0.033292711 -0.0045170886 0.99944013 1.6984208e-05
1.4942482 0.18944855 0.94388294 0.029821489 -0.0049396791 0.9995454 6.0339124e-05
1.5340033 0.18997046 0.94206089 0.028572753 -0.0078060408 0.99956286 0.00097311259
1.4915495 0.1909155 0.94397926 0.034527842 -0.0041311849 0.99940574 1.6185068e-05
1.4921294 0.19136341 0.94396067 0.034081593 -0.0040650717 0.99941969 1.57007e-05
1.4913554 0.19350067 0.94399625 0.034690082 -0.0038967016 0.99940383 1.5881131e-05
1.4931107 0.1936768 0.94393289 0.030073736 -0.0043695886 0.99953902 4.6752386e-05
1.4940273 0.19375151 0.94390517 0.029524876 -0.0043972875 0.99955684 5.6147077e-05
1.4912909 0.19470628 0.94399804 0.033206318 -0.0037861443 0.99944639 1.3598395e-05
1.4923929 0.19438425 0.9439581 0.031131143 -0.0040975022 0.99950701 2.7418222e-05
1.4940039 0.19443543 0.94390786 0.029501332 -0.0043084281 0.99955785 5.6377812e-05
1.5232857 0.19411175 0.94248706 0.03773696 -0.011103478 0.99923021 0.0010062321
1.4914427 0.19683056 0.94399929 0.032909781 -0.003589127 0.99945635 1.3539529e-05
1.5308212 0.19710992 0.94228989 0.031862706 -0.014753767 0.99938935 0.00097629515
1.5333142 0.19698279 0.94222003 0.029610226 -0.014591244 0.99946046 0.00097458705
1.5351596 0.19756314 0.94219828 0.027709723 -0.015026827 0.9995091 0.00098166708
1.5764552 0.19636227 0.94115239 0.039013676 -0.0072362036 0.99921274 0.00015117359
1.4913782 0.19913113 0.94400555 0.032105323 -0.0035209949 0.99948055 1.3086682e-05
1.4930784 0.19886275 0.94394529 0.027175089 -0.0037971805 0.99963641 4.4239936e-05
1.4941947 0.19870782 0.94391328 0.029225169 -0.0039845346 0.99956745 5.4140364e-05
1.4913069 0.20055771 0.94401151 0.031969883 -0.0034733897 0.99948496 1.2974575e-05
1.4928372 0.20183761 0.94396293 0.028707677 -0.0035109986 0.99958587 2.403922e-05
1.4954013 0.20126651 0.94388407 0.029413534 -0.0039166342 0.99956167 5.0785013e-05
1.4913639 0.20309681 0.94401228 0.03035727 -0.003274044 0.99953437 1.3582845e-05
1.4927193 0.20346409 0.94396901 0.027964534 -0.0034701715 0.99960905 2.4776267e-05
1.4949378 0.20348847 0.9439044 0.028384306 -0.0039136466 0.99959469 5.0237493e-05
1.4913586 0.20481491 0.9440136 0.029113479 -0.003389504 0.9995718 1.3028341e-05
1.4930216 0.20511326 0.94396412 0.027522234 -0.0035646674 0.99962229 2.4366067e-05
1.4914708 0.20697622 0.94401437 0.028005354 -0.0035288362 0.9996047 1.3637882e-05
1.4924639 0.20717901 0.94398749 0.028473895 -0.0037067842 0.99958956 1.4132956e-05
1.4942385 0.20736995 0.94393873 0.026323047 -0.0038738027 0.99966174 3.3176399e-05
1.4912918 0.20903821 0.94402444 0.026699394 -0.0036186469 0.99964392 1.3443599e-05
1.4929138 0.20917988 0.94398117 0.027358081 -0.0040741432 0.99962139 1.3673334e-05
1.4950973 0.20862523 0.94392139 0.02586038 -0.0040541706 0.99967837 4.2236097e-05
1.4966042 0.20828772 0.94387829 0.027248699 -0.004341139 0.99963105 4.1750442e-05
1.491361 0.2113055 0.94402951 0.025816593 -0.0038222084 0.99966943 1.404427e-05
1.4929565 0.21097805 0.9439863 0.026320674 -0.0042069247 0.99965274 1.3698393e-05
1.4945709 0.2109236 0.94394326 0.025968032 -0.0043424033 0.99966681 2.6302685e-05
1.4911512 0.2126395 0.94404 0.025599314 -0.0038702169 0.9996745 1.4318474e-05
1.4931417 0.21278024 0.94398844 0.025654715 -0.0043589156 0.99967259 1.4461529e-05
1.495293 0.21321405 0.94393301 0.026384408 -0.0048258598 0.99964911 1.5495258e-05
1.49696 0.2133783 0.94389206 0.026465744 -0.004877598 0.99965125 3.7582748e-05
1.4912951 0.21491341 0.94404382 0.025059327 -0.0041726041 0.99968749 1.4405499e-05
1.4926889 0.21481708 0.9440068 0.02454873 -0.0044160844 0.99970526 1.5448968e-05
1.4945447 0.21416493 0.94395715 0.025830977 -0.0047465395 0.9996658 1.500086e-05
1.4912416 0.21710028 0.94405234 0.024486523 -0.0043267868 0.99970275 1.5808297e-05
1.4928446 0.21720625 0.94401187 0.02411917 -0.0046198871 0.99971688 1.7252532e-05
1.4946741 0.21689682 0.94396585 0.025046756 -0.0049931426 0.99968922 1.6487738e-05
1.4979062 0.21797422 0.94388527 0.026799597 -0.00579726 0.99963152 1.5827089e-05
1.4985327 0.21783173 0.94386709 0.027085282 -0.0058702654 0.99962229 1.5545436e-05
1.4911041 0.21914887 0.94406271 0.023462443 -0.0044861101 0.99973148 1.7139644e-05
1.4929987 0.21921764 0.94401693 0.023697447 -0.0049566771 0.99972606 1.7856684e-05
1.4949702 0.21862319 0.94396645 0.024572233 -0.0053036427 0.99970239 1.7263488e-05
1.4960234 0.2183976 0.94393861 0.025274914 -0.0054870443 0.99968064 1.7016271e-05
1.4912539 0.22056825 0.94406492 0.023021389 -0.0046799062 0.99974263 1.7496121e-05
1.4928151 0.22102311 0.94402963 0.023189237 -0.0051840912 0.99973828 1.8514073e-05
1.4948145 0.2211988 0.9439832 0.023889156 -0.0056955568 0.99971843 1.9070814e-05
1.4910084 0.22276594 0.9440791 0.021959156 -0.0048440155 0.99977136 1.94965e-05
1.4929839 0.22288369 0.94403553 0.022647707 -0.0054428107 0.99975264 1.9096851e-05
1.494885 0.22318769 0.94399327 0.023378745 -0.0059698629 0.99973142 2.0147811e-05
1.4969555 0.22315302 0.9439429 0.024599833 -0.0064657154 0.99969381 1.9543217e-05
1.499145 0.22267058 0.94388193 0.026060941 -0.0068980772 0.9996475 1.7624163e-05
1.4913075 0.2251551 0.94408363 0.021060061 -0.0052508442 0.99979299 2.0799136e-05
1.4928639 0.2249231 0.94404972 0.021996375 -0.0055645076 0.99976718 2.0295545e-05
1.4948148 0.22507918 0.94400662 0.022813933 -0.0061894385 0.9997443 2.0703601e-05
1.4970915 0.22467385 0.94395065 0.024267184 -0.0066165677 0.99970126 1.9652034e-05
1.4912059 0.22722721 0.94409448 0.020152021 -0.0057668602 0.99981445 2.344634e-05
1.4929496 0.22732468 0.94406033 0.021432685 -0.006252862 0.9997772 2.2245846e-05
1.4950076 0.22719184 0.94401485 0.022187438 -0.0067871218 0.9997586 2.2545659e-05
1.4968522 0.22715339 0.94397259 0.023365147 -0.0072410442 0.99972385 2.1658843e-05
1.4986449 0.2267015 0.9439255 0.024544479 -0.0075636487 0.99968839 2.0432837e-05
1.5007359 0.22658356 0.94386905 0.025868895 -0.0081019979 0.99964488 1.9103338e-05
1.4911764 0.22876185 0.94410169 0.019063745 -0.0058534024 0.99984473 2.4478695e-05
1.4929862 0.2289957 0.94406939 0.020607829 -0.0066145477 0.9997977 2.3474933e-05
1.4946924 0.22915077 0.94403493 0.021195287 -0.0072490284 0.99978203 2.4430932e-05
1.4970474 0.22902055 0.94398248 0.022806231 -0.0078023984 0.99973553 2.2946217e-05
1.4981371 0.2288754 0.94395524 0.023623951 -0.0079948707 0.99971062 2.1897296e-05
1.5010164 0.22981472 0.94389278 0.024695808 -0.0094381692 0.9996717 2.1144688e-05
1.491178 0.23082019 0.94411182 0.017864883 -0.006455584 0.99987274 2.8210878e-05
1.4929779 0.23093192 0.94408172 0.019689288 -0.0073208511 0.99981868 2.5928519e-05
1.4948651 0.23097046 0.94404471 0.020823155 -0.0079809073 0.99978721 2.5642714e-05
1.4970444 0.23117177 0.9440003 0.02192935 -0.0087509034 0.99975479 2.5559089e-05
1.4991064 0.23145761 0.9439553 0.023248823 -0.0092884861 0.99971324 2.3282595e-05
1.5007335 0.23139152 0.94391465 0.024220152 -0.0097733298 0.99968177 2.1744034e-05
1.5023785 0.23116049 0.94387037 0.025022211 -0.010237349 0.99965483 2.0923366e-05
1.4912083 0.23324972 0.94412571 0.016504938 -0.0070057064 0.99990374 3.1148455e-05
1.493596 0.23377067 0.94408846 0.018200589 -0.0075729955 0.99985605 2.9123135e-05
1.4950068 0.23367907 0.94406277 0.02001258 -0.0082800267 0.99980223 2.6682885e-05
1.49686 0.23326874 0.94402283 0.021057764 -0.0091286777 0.99977279 2.7283813e-05
1.4983593 0.23293439 0.94398731 0.022208314 -0.0095712738 0.99973905 2.6058115e-05
1.5006535 0.23243991 0.94392741 0.023966001 -0.0099830385 0.99968678 2.2533062e-05
1.4913042 0.23454425 0.94413048 0.015473736 -0.007033302 0.99993044 3.2931413e-05
1.4928924 0.23419806 0.94410491 0.017426049 -0.0077517307 0.99987531 3.036562e-05
1.6292853 -0.014167086 0.94557822 0.033518042 -0.032645572 0.99895555 9.2439768e-05
1.6310254 -0.014580807 0.94550335 0.037210297 -0.033912603 0.99883235 9.7074371e-05
1.6330152 -0.01505972 0.94540447 0.042914301 -0.035263088 0.99865896 0.00010276051
1.6350052 -0.015501132 0.94528109 0.051747371 -0.037036944 0.99839759 0.00010843441
1.6360729 -0.015714869 0.94520038 0.057672255 -0.038656473 0.99821627 0.00010835909
1.6198851 -0.012009113 0.94590414 0.031277418 -0.024884563 0.99920481 8.5215164e-05
1.6209863 -0.012249154 0.94586492 0.030493261 -0.025773531 0.99920464 8.6928922e-05
1.6230088 -0.012693727 0.9457947 0.029585155 -0.027268935 0.99919122 9.3084185e-05
1.6249847 -0.013135833 0.94572681 0.028938072 -0.029485894 0.99915028 9.7033175e-05
1.6269544 -0.013563446 0.9456659 0.030227698 -0.03128415 0.99907178 8.9352972e-05
1.6284388 -0.01374368 0.94561875 0.032286119 -0.032138638 0.99900085 9.1408408e-05
1.6310006 -0.013100239 0.94555652 0.036086928 -0.032731019 0.99889296 9.3658069e-05
1.6329907 -0.0129894 0.94547951 0.042136874 -0.033941928 0.99872196 9.4917712e-05
1.6349403 -0.013250246 0.94537258 0.050489675 -0.034079075 0.99851859 0.00010037395
1.6133981 -0.010543269 0.9461574 0.036263224 -0.020134961 0.99916512 7.7297038e-05
1.6151053 -0.010912073 0.94608462 0.034743343 -0.021804817 0.99917454 7.813386e-05
1.6170492 -0.011351218 0.94600886 0.033295449 -0.022908837 0.99919313 8.1278988e-05
1.6189485 -0.011738708 0.9459396 0.031869888 -0.024238322 0.99920368 8.3529667e-05
1.6208537 -0.01122837 0.94589472 0.030004647 -0.026210448 0.9992075 8.4114021e-05
1.6229771 -0.011065195 0.94584054 0.028747164 -0.027332142 0.99921376 8.755301e-05
1.6250036 -0.0111553 0.94578445 0.027995799 -0.028855817 0.99919349 9.0923706e-05
1.6269888 -0.011238572 0.94573545 0.029109046 -0.029960373 0.99913698 9.0857822e-05
1.6290069 -0.011212329 0.9456833 0.031762164 -0.03069799 0.99905628 8.7173081e-05
1.630942 -0.011035009 0.9456268 0.035279404 -0.031479061 0.99895328 8.9416637e-05
1.6331434 -0.010613215 0.94555449 0.040968731 -0.031975552 0.99880779 8.8643501e-05
1.6350054 -0.010686505 0.94545734 0.049780011 -0.032549169 0.99858749 9.489886e-05
1.6121466 -0.0099168625 0.94621712 0.037029792 -0.018686235 0.99917346 7.4671552e-05
1.6152884 -0.0092979716 0.94611818 0.033820514 -0.021129619 0.99921882 7.6458964e-05
1.6167569 -0.0094744852 0.946064 0.032506905 -0.022418046 0.99922854 7.6798031e-05
1.6188667 -0.0095687341 0.94599712 0.030839691 -0.024093876 0.99923712 7.8585428e-05
1.6215564 -0.0096700601 0.94591713 0.028863838 -0.026217135 0.99923986 8.1048202e-05
1.622511 -0.0098970532 0.9458856 0.02847109 -0.026726225 0.9992376 8.2459381e-05
1.6252546 -0.0083211968 0.94585907 0.027028773 -0.027606033 0.99925345 8.442637e-05
1.6270975 -0.0085798539 0.94581026 0.027748115 -0.029258974 0.99919021 8.51695e-05
1.6289163 -0.0089072715 0.9457562 0.030548383 -0.030649085 0.99908864 8.1526239e-05
1.6310046 -0.0091628386 0.94568378 0.034451343 -0.030958595 0.99898797 8.1995015e-05
1.6330261 -0.0093274694 0.94560081 0.040119089 -0.031319387 0.99884814 8.5288244e-05
1.6349193 -0.0090982672 0.94551826 0.047154486 -0.032117534 0.99865985 8.8144283e-05
1.6155601 -0.0060424944 0.94618642 0.032055877 -0.021107275 0.99927515 7.8163874e-05
1.6169975 -0.0062729195 0.94613492 0.03106769 -0.021981657 0.99928439 7.7804805e-05
1.618922 -0.0066683502 0.94606799 0.029723115 -0.023214284 0.99929261 7.7191326e-05
1.6211163 -0.0071377982 0.94599622 0.028312799 -0.024792129 0.99929261 7.7081633e-05
1.6229196 -0.0074943122 0.94593948 0.027490756 -0.025796026 0.99928939 7.9157253e-05
1.625038 -0.0074865804 0.94588834 0.026609605 -0.027513592 0.99926734 8.1086589e-05
1.6271307 -0.0071157613 0.94585156 0.027310431 -0.028736532 0.9992162 8.1409067e-05
1.6290299 -0.0069683413 0.94581056 0.029832184 -0.029868225 0.99912745 7.9850128e-05
1.6311615 -0.0069747185 0.94574618 0.034410063 -0.030752387 0.9989996 7.8861136e-05
1.6329464 -0.0069261338 0.9456808 0.039028235 -0.031420436 0.99887633 8.0403493e-05
1.6349015 -0.0066304086 0.94559616 0.047071684 -0.031546004 0.99868941 8.2368992e-05
1.6137894 -0.005294018 0.9462598 0.032940071 -0.020050084 0.99927247 7.7368852e-05
1.6149331 -0.0056956885 0.94621432 0.03233612 -0.020777492 0.99927485 7.7988945e-05
1.6165321 -0.0059016403 0.94615984 0.031215414 -0.021904254 0.99928099 7.8518904e-05
1.6219931 -0.00538899 0.94602042 0.027097667 -0.02583297 0.99929893 7.4101772e-05
1.6295377 -0.0043002963 0.9458757 0.029717645 -0.029701265 0.99913561 7.1051531e-05
1.6309763 -0.0049932236 0.94581282 0.033899959 -0.030374335 0.99902552 7.4738069e-05
1.6329528 -0.0049554859 0.94573998 0.039021362 -0.030745877 0.99889725 7.7159311e-05
1.6348922 -0.0050539132 0.94564623 0.046950523 -0.031353202 0.99870634 7.921159e-05
1.6215155 -0.0023056949 0.94611847 0.026218345 -0.026197856 0.99931341 7.1943221e-05
1.6220487 -0.0024106426 0.94610238 0.026044717 -0.026477085 0.99931079 7.3025141e-05
1.625363 -0.0031515621 0.94600296 0.025385961 -0.027983198 0.99928689 7.0915885e-05
1.627064 -0.0035318888 0.94595587 0.026038744 -0.028679177 0.99925023 6.9613037e-05
1.6290774 -0.0034802647 0.94591129 0.028614266 -0.029414935 0.99916917 6.958015e-05
1.6309974 -0.003121106 0.94586664 0.033607975 -0.030066578 0.99904323 6.9653914e-05
1.6329815 -0.0029248316 0.9458006 0.04019146 -0.030594936 0.99888635 7.1118237e-05
1.6349975 -0.0029469179 0.94570208 0.04829127 -0.030855879 0.99870217 7.4408454e-05
1.6286211 -0.0018866601 0.94596976 0.027136022 -0.029385047 0.9992047 6.6437686e-05
1.6316792 -0.00064368162 0.94592077 0.034598183 -0.030119484 0.99902236 6.3230662e-05
1.6331323 -0.00083234045 0.94585764 0.040420774 -0.030376894 0.99889153 6.6042798e-05
1.6347686 -0.00079929834 0.94578123 0.046703953 -0.030509498 0.99874955 6.9347021e-05
1.6273252 0.0014145414 0.9461019 0.025358783 -0.029256698 0.999255 6.0122973e-05
1.6292616 0.00093261735 0.94604355 0.02827736 -0.029635131 0.99917603 5.8844711e-05
1.6310091 0.00059307308 0.94598246 0.032186184 -0.029824572 0.99908137 6.0096198e-05
1.6330128 0.00083534204 0.9459151 0.039686866 -0.030093294 0.99891591 6.1527375e-05
1.634801 0.00096115295 0.94583589 0.046521802 -0.030128175 0.99876457 6.3976913e-05
1.6313763 0.0025988766 0.94603336 0.033342216 -0.029717233 0.9990654 5.5223329e-05
1.6329918 0.002756072 0.94597542 0.039889012 -0.029758485 0.99892616 5.7290184e-05
1.6347394 0.002566407 0.94588751 0.046816133 -0.029778477 0.99877423 5.9882044e-05
1.6315099 0.0054783258 0.94611812 0.034095846 -0.029247152 0.99906969 5.0560349e-05
1.6331303 0.0050980211 0.94604117 0.041462053 -0.029178161 0.99891919 5.2408643e-05
1.6347659 0.0047002761 0.94594854 0.048183028 -0.029177984 0.99877018 5.4284297e-05
1.633216 0.0070106569 0.94609469 0.041796908 -0.028723475 0.99893636 5.0237162e-05
1.6343548 0.0067678853 0.94603372 0.046004634 -0.02873799 0.99884409 5.1203751e-05
1.6336694 0.0099244481 0.94615698 0.044739034 -0.02766942 0.99891692 4.8232956e-05
1.6343405 0.0097796414 0.94611907 0.047595743 -0.027551599 0.99885577 4.9367674e-05
1.6333783 0.01026394 0.94618088 0.04305461 -0.027589818 0.99895179 4.7680915e-05
1.6345985 0.010166349 0.94611657 0.048267178 -0.027477883 0.99884325 4.8919916e-05
1.6326853 0.10490984 0.94632787 0.087375894 0.0046381904 0.99633676 9.6523909e-05
1.6296352 0.15332696 0.94372547 0.10473868 0.2209554 0.97032452 0.013809017
1.6067291 0.1550052 0.94422442 0.038239501 0.25923467 0.96523684 0.0089756623
1.6106803 0.15491028 0.94412714 0.043348297 0.25523996 0.96609372 0.0093313903
1.6170642 0.15463203 0.94405127 0.055186596 0.25225148 0.96623451 0.010482118
1.6192175 0.15465349 0.94396859 0.06057284 0.2492317 0.96673352 0.011068154
1.6209282 0.15453285 0.94394261 0.06674511 0.24676087 0.96702516 0.011434742
1.6231996 0.15457988 0.94378918 0.079211593 0.24327067 0.96727031 0.012076839
1.6249877 0.15439227 0.94373047 0.087357685 0.2383718 0.96793693 0.012467111
1.6269934 0.15462428 0.94348276 0.097907685 0.23490594 0.96803051 0.013080436
1.6288679 0.15466788 0.94327325 0.10579738 0.22907473 0.96855617 0.013548448
1.6305937 0.15432231 0.94318622 0.11558909 0.22220004 0.969082 0.014014988
1.5744736 0.15688369 0.94439822 0.029264741 0.25747043 0.96595162 0.0088471146
1.6236496 -0.012796827 0.94577217 0.02915138 -0.028654572 0.99916679 9.5149e-05
1.6115977 -0.010102469 0.94623351 0.037782345 -0.018055992 0.99916327 7.4172778e-05
1.6128634 -0.010401946 0.94618052 0.036637627 -0.019352673 0.99917102 7.5587312e-05
1.6147715 -0.010801978 0.94610006 0.035002586 -0.021408934 0.99917567 7.82141e-05
1.616931 -0.010572212 0.94603157 0.0329668 -0.02272323 0.99920738 7.9295693e-05
1.6189286 -0.011033019 0.94595724 0.031443574 -0.024594365 0.9992069 8.1993632e-05
1.6207259 -0.01014016 0.94592845 0.029672598 -0.025633032 0.99923205 8.0726219e-05
1.6236151 -0.010100379 0.94585079 0.028145026 -0.027339056 0.99923044 8.603181e-05
1.6246524 -0.010333491 0.94581759 0.027939079 -0.027881883 0.99922132 8.8813809e-05
1.6032851 -0.0081487354 0.94658262 0.041818436 -0.015500446 0.99904406 6.5817221e-05
1.6050409 -0.0085465508 0.94650882 0.041467939 -0.015831703 0.99906147 6.8418638e-05
1.6070142 -0.0089920964 0.94642675 0.040876292 -0.01621596 0.9990831 6.9360445e-05
1.609 -0.0094402796 0.94634378 0.03980235 -0.016574346 0.99912024 7.3019371e-05
1.6106559 -0.0097598815 0.94627488 0.03860658 -0.017341375 0.99915171 7.4387412e-05
1.6129899 -0.0090945205 0.94620407 0.035717994 -0.019461324 0.9991979 7.453515e-05
1.614916 -0.0088522825 0.94614214 0.033861898 -0.02116606 0.99921674 7.5529475e-05
1.6170434 -0.0089429514 0.94606799 0.031988114 -0.022761773 0.99923539 7.5787182e-05
1.6190617 -0.0093478346 0.94599712 0.030552793 -0.02431903 0.99923974 7.8369019e-05
1.6210116 -0.0088118464 0.94595611 0.028989099 -0.025196282 0.99926281 7.7447366e-05
1.6229311 -0.008623803 0.94590914 0.027845906 -0.026145408 0.99927032 8.1276135e-05
1.6249614 -0.0089838216 0.94584811 0.027212527 -0.028240094 0.99923187 8.4834188e-05
1.6267372 -0.0093809972 0.94579464 0.027803775 -0.029318547 0.99918687 8.7209948e-05
1.5956779 -0.0063339379 0.94695193 0.043530978 -0.011840883 0.99899822 4.1383919e-05
1.5970547 -0.0066498159 0.94688243 0.043187641 -0.012589852 0.99900526 4.6236466e-05
1.5990378 -0.0071140872 0.94678104 0.042449214 -0.013986274 0.99902165 5.3626398e-05
1.6010202 -0.0075606466 0.94668585 0.042146415 -0.014701174 0.99903202 6.1249397e-05
1.6024514 -0.0077158394 0.94662166 0.041945204 -0.015261169 0.99904042 6.5703789e-05
1.6050322 -0.0070684222 0.94653338 0.040335242 -0.015883427 0.99910045 6.9814902e-05
1.6070088 -0.0069731488 0.94646186 0.03907739 -0.016768964 0.99913216 7.1122573e-05
1.6089208 -0.0072457218 0.94638705 0.03808894 -0.017418014 0.99915934 7.3503259e-05
1.6108958 -0.007433983 0.94631386 0.036413174 -0.018664159 0.99919045 7.333477e-05
1.6129849 -0.0070156292 0.94624978 0.034517072 -0.019740628 0.99922979 7.5317934e-05
1.6150464 -0.0067524035 0.9461866 0.032891512 -0.020595845 0.99926221 7.8701763e-05
1.6171794 -0.0067748334 0.94611722 0.031148758 -0.022023603 0.99928063 7.7368306e-05
1.619136 -0.0068468996 0.94605702 0.029554315 -0.02340477 0.99929267 7.6318116e-05
1.62081 -0.006873976 0.94601095 0.02845725 -0.024442252 0.99929774 7.7036966e-05
1.6230751 -0.0069987006 0.94594973 0.027200541 -0.026049573 0.9992907 7.7349432e-05
1.6250173 -0.0070218784 0.94590104 0.02654274 -0.027329743 0.99927419 7.9691985e-05
1.626475 -0.0070145358 0.94586629 0.026577935 -0.028063077 0.99925292 8.2354847e-05
1.6312543 -0.0060799993 0.94576997 0.034458831 -0.030693935 0.99900222 7.7139783e-05
1.5938635 -0.0058628214 0.94704765 0.044158388 -0.010867883 0.99897957 3.5038323e-05
1.5949619 -0.0057882671 0.9469943 0.043840542 -0.011464631 0.99898881 4.035317e-05
1.5971016 -0.0050492757 0.94689775 0.042240929 -0.012621449 0.99904418 4.9172231e-05
1.5989985 -0.0051058885 0.94680965 0.041276351 -0.01396057 0.99906743 5.552678e-05
1.6009874 -0.0052756499 0.94671869 0.040271886 -0.015381649 0.99908948 6.1253682e-05
1.6030172 -0.005171 0.94663787 0.039759602 -0.015402338 0.99911791 6.765288e-05
1.6048797 -0.0050503919 0.94656998 0.038906466 -0.015828649 0.99914962 7.080572e-05
1.6071337 -0.0046378714 0.94649786 0.037341334 -0.016377648 0.99919981 7.1176444e-05
1.6090494 -0.0047027403 0.94643164 0.036131624 -0.017243603 0.9992277 7.4364485e-05
1.6109993 -0.0048863343 0.94636154 0.034732543 -0.018587315 0.99924678 7.4715957e-05
1.6129614 -0.0050658328 0.94629222 0.033422884 -0.019672615 0.99926603 7.6937613e-05
1.6149327 -0.0053597647 0.94622236 0.032120481 -0.020937536 0.99927711 7.7876037e-05
1.6169434 -0.0050210408 0.94616944 0.030359296 -0.022657178 0.99928749 7.7719735e-05
1.6188369 -0.0050676977 0.94611287 0.028974254 -0.023935925 0.999295 7.6897588e-05
1.6209615 -0.0051277261 0.94605404 0.027543873 -0.025319697 0.99929994 7.3823176e-05
1.6230569 -0.0049236398 0.94600767 0.026542854 -0.026486106 0.99929678 7.2720963e-05
1.6250408 -0.0047629015 0.94596422 0.025869969 -0.027546056 0.99928606 7.2868243e-05
1.6270094 -0.0047394317 0.945921 0.026173113 -0.028556574 0.99925005 7.3616524e-05
1.628926 -0.0052379882 0.94586241 0.028802803 -0.029473383 0.99916172 7.6109543e-05
1.6303049 -0.0056348154 0.9458124 0.031932093 -0.03007766 0.99907452 7.6272714e-05
1.5969152 -0.003943576 0.94692057 0.04178869 -0.012384136 0.99906301 4.6729012e-05
1.5992597 -0.0024965522 0.9468317 0.039559424 -0.013603535 0.99913788 5.6622281e-05
1.600994 -0.0027287453 0.94675517 0.038794503 -0.014515119 0.99915761 6.4652362e-05
1.6029315 -0.0028931757 0.94667649 0.0380399 -0.015263973 0.99917883 6.8489171e-05
1.6050014 -0.0031692772 0.94659573 0.037465412 -0.0157231 0.99920022 7.0678812e-05
1.606951 -0.0034133373 0.94652641 0.036446132 -0.016486716 0.99922627 7.1026348e-05
1.6089166 -0.0031178135 0.9464646 0.034951806 -0.017692264 0.99925399 7.4809243e-05
1.610937 -0.0029472103 0.94640249 0.033283424 -0.019116696 0.99927807 7.5196425e-05
1.6131989 -0.0030067251 0.9463309 0.031720065 -0.020617738 0.9992941 7.6264922e-05
1.6149795 -0.003059281 0.94627631 0.030537322 -0.021826796 0.99930191 7.7453064e-05
1.6171012 -0.0025679322 0.94622755 0.028799646 -0.023459854 0.9993124 7.5835283e-05
1.6190259 -0.0029432699 0.94616407 0.027836848 -0.024503376 0.99931335 7.6029712e-05
1.6210021 -0.0031164607 0.94610763 0.026758173 -0.02572063 0.99931127 7.4181364e-05
1.6230648 -0.0029374019 0.94606334 0.02587324 -0.026920136 0.99930334 7.1907372e-05
1.6248227 -0.0029501216 0.94602084 0.025432417 -0.027730754 0.99929273 7.1636772e-05
1.6270128 -0.0029587669 0.94597328 0.025766529 -0.028746381 0.99925536 6.8516754e-05
1.6289244 -0.0029716359 0.94593072 0.028263565 -0.029446263 0.9991771 6.7342153e-05
1.6303184 -0.0029297883 0.94589293 0.030631129 -0.029816825 0.99911231 6.8492787e-05
1.5956434 -0.0011768108 0.94700682 0.04095136 -0.011495329 0.99910569 4.4041823e-05
1.5970572 -0.0015043631 0.94693959 0.040351707 -0.012211815 0.99912238 5.0222363e-05
1.5990775 -0.0012795245 0.94685417 0.03889079 -0.013582607 0.99916232 5.8956968e-05
1.600963 -0.0010923243 0.94677967 0.037566233 -0.014569681 0.99919957 6.5375505e-05
1.6030159 -0.00099522632 0.946702 0.036585234 -0.015419329 0.99922597 7.0621296e-05
1.6051288 -0.00098336278 0.94662809 0.035680119 -0.016130572 0.9992516 7.0973241e-05
1.6069666 -0.00096489198 0.94656909 0.034588236 -0.017013827 0.99927396 7.0702583e-05
1.6090186 -0.00068122259 0.94650698 0.033067692 -0.018227533 0.9993006 7.2872936e-05
1.611082 -0.0010175153 0.94643652 0.031811573 -0.019553507 0.9993121 7.3849631e-05
1.6128757 -0.0010592389 0.94638336 0.030562643 -0.020718658 0.99932414 7.5437791e-05
1.6150359 -0.00095112529 0.94632441 0.029107565 -0.022217739 0.99933302 7.5719836e-05
1.6169661 -0.0010104441 0.94627124 0.027993072 -0.023537025 0.99933338 7.5997305e-05
1.6190144 -0.0013728283 0.94620866 0.027047584 -0.024878962 0.99932593 7.4790994e-05
1.6209835 -0.00097399106 0.94617128 0.025937306 -0.026192136 0.99932218 7.275946e-05
1.6228315 -0.0011109554 0.946123 0.02532322 -0.027209636 0.99931169 7.1527276e-05
1.6249485 -0.0010236473 0.94607687 0.024907282 -0.028211847 0.9992944 6.7760142e-05
1.6270665 -0.00093382108 0.94603485 0.025492512 -0.02910801 0.99925375 6.4313012e-05
1.628859 -0.0010374563 0.94599122 0.027599318 -0.029598331 0.99918997 6.4593485e-05
1.6308578 -0.0010484604 0.94593513 0.031764679 -0.030042188 0.99908376 6.5121458e-05
1.5978371 0.00021751008 0.94692498 0.038752235 -0.012873428 0.99917477 5.4154381e-05
1.5985723 0.00039959114 0.9468962 0.038143016 -0.013279439 0.99919283 5.8238082e-05
1.601092 0.0012248742 0.94680619 0.036013979 -0.014563254 0.99925399 6.6825967e-05
1.6031219 0.00096711167 0.94672787 0.035230853 -0.015257336 0.99927467 7.091929e-05
1.604961 0.00096565834 0.94666535 0.034429971 -0.015879916 0.99929732 7.0014226e-05
1.6069217 0.0010248695 0.94660449 0.033150699 -0.017081721 0.99931675 6.9134439e-05
1.6090032 0.00089311256 0.94653648 0.03190143 -0.018437427 0.99933046 7.0585251e-05
1.611025 0.00070697768 0.94647408 0.030619215 -0.019817311 0.99934113 7.3216463e-05
1.6130269 0.0009802233 0.94642538 0.029031876 -0.021202903 0.99935657 7.3338742e-05
1.6148974 0.0010382998 0.94637805 0.027842851 -0.022518111 0.99936038 7.4155832e-05
1.6171187 0.00099721516 0.94632107 0.026669174 -0.023953876 0.99935883 7.398989e-05
1.618969 0.00098576117 0.94627643 0.025819099 -0.025159422 0.9993521 7.2807648e-05
1.6208659 0.0010867903 0.94623369 0.025049616 -0.026324837 0.9993428 7.1595343e-05
1.623152 0.0011002374 0.94618106 0.024461813 -0.02757124 0.99932474 6.8957364e-05
1.625101 0.0011564435 0.94614124 0.024489895 -0.028504217 0.99929816 6.5515349e-05
1.6270027 0.001230731 0.94610423 0.025219558 -0.029186731 0.99926037 6.1002869e-05
1.6289513 0.0011866475 0.94605821 0.027370518 -0.029632378 0.99919671 5.8992926e-05
1.6306267 0.0010416643 0.94600827 0.03082785 -0.029826269 0.99911225 5.9618676e-05
1.5945729 0.0039325361 0.94710135 0.038919546 -0.01097193 0.99918956 4.7616169e-05
1.5970984 0.0033678522 0.94699031 0.037504211 -0.012417459 0.9992274 5.7006851e-05
1.599151 0.0031072258 0.94690531 0.036160298 -0.013512163 0.99926174 6.2053718e-05
1.600994 0.0027656704 0.94683105 0.035061456 -0.014553349 0.99928606 6.6609238e-05
1.6029906 0.0028434098 0.94675958 0.033934761 -0.015350648 0.9993149 7.0436123e-05
1.6049588 0.002895525 0.94669759 0.033036049 -0.016056128 0.99933618 6.8502166e-05
1.6070465 0.0030430001 0.94663507 0.031733129 -0.017229013 0.99935806 6.685705e-05
1.6091715 0.0030995258 0.9465726 0.030270763 -0.018724037 0.99937248 6.8138797e-05
1.6108855 0.0028928046 0.94652116 0.029205156 -0.019835679 0.99938005 6.9191483e-05
1.612981 0.0030034252 0.94647056 0.027767545 -0.021306597 0.99938852 6.9658279e-05
1.615068 0.0031671596 0.94642299 0.026444925 -0.022657389 0.99939388 7.0096488e-05
1.6169465 0.0031991643 0.94638109 0.025463333 -0.023868315 0.99939173 7.1414681e-05
1.6191298 0.0032910206 0.94633704 0.024547057 -0.025281308 0.9993816 7.0091381e-05
1.6210026 0.0029453095 0.94628602 0.024201633 -0.026427943 0.99936217 6.9222508e-05
1.6228646 0.0026100513 0.94623566 0.02404825 -0.0274604 0.99933922 6.7613189e-05
1.6249566 0.0029134501 0.94620001 0.024082568 -0.028449539 0.99931139 6.43491e-05
1.6269212 0.0028609671 0.94615644 0.024848606 -0.029169645 0.99927169 5.9678798e-05
1.6290258 0.0033720015 0.94612592 0.027590755 -0.029484738 0.99919975 5.3888525e-05
1.630861 0.0030526205 0.94606441 0.031964023 -0.029670486 0.9990983 5.4912802e-05
1.6323049 0.0030402406 0.94601321 0.036426231 -0.029713221 0.99899966 5.4927743e-05
1.6347679 0.0036342079 0.94591731 0.047322668 -0.029403605 0.9987762 5.6673252e-05
1.596839 0.0054055667 0.94702172 0.036516614 -0.012404021 0.99926257 5.7736921e-05
1.5991604 0.0048847622 0.94692647 0.035057098 -0.013615544 0.99929893 6.4456261e-05
1.6011021 0.0049493429 0.9468565 0.033589706 -0.014615339 0.99933469 6.7848152e-05
1.6028271 0.0048969896 0.946796 0.032675304 -0.01541083 0.99935335 7.006761e-05
1.6051049 0.0051012659 0.94672835 0.031579573 -0.016283013 0.99937767 6.7972644e-05
1.6070762 0.0051547815 0.94667095 0.030274106 -0.017426623 0.99939698 6.6495646e-05
1.6089215 0.005187972 0.94662035 0.029050404 -0.018657524 0.99940819 6.6100743e-05
1.6110057 0.0051984056 0.94656593 0.02767333 -0.020117365 0.99941611 6.574834e-05
1.612975 0.0047203056 0.94650716 0.026705189 -0.021400794 0.99941462 6.6609355e-05
1.6149954 0.0046523511 0.94645917 0.025633857 -0.022654507 0.99941468 6.7082154e-05
1.616987 0.0050267768 0.94642484 0.024436746 -0.023875095 0.99941707 6.7384128e-05
1.6189785 0.0051112715 0.94638777 0.023733612 -0.02504581 0.99940687 6.7275767e-05
1.6210036 0.0052154534 0.94635218 0.02337742 -0.026190458 0.99938774 6.6737419e-05
1.6230248 0.004774007 0.94629902 0.023414517 -0.02737605 0.99935716 6.5480104e-05
1.6250256 0.0049611628 0.94626403 0.023797879 -0.028287964 0.99932361 6.2394334e-05
1.6270663 0.0050505721 0.94622439 0.025001559 -0.029022949 0.99927557 5.8152062e-05
1.6290187 0.0053786589 0.9461894 0.027668415 -0.029251939 0.99920917 5.2810457e-05
1.6308542 0.0050709913 0.94612837 0.032221343 -0.029334102 0.99910778 5.1604722e-05
1.6327379 0.0046060486 0.94604445 0.038541168 -0.029479606 0.99897009 5.2513453e-05
1.6346287 0.0055213035 0.94598085 0.047617447 -0.028900255 0.99879527 5.332111e-05
1.5977169 0.0077928053 0.94701356 0.034486439 -0.013116643 0.99932432 6.2363673e-05
1.599486 0.0073354384 0.94694418 0.033384643 -0.014012009 0.99934918 6.6870751e-05
1.6010678 0.0073246597 0.9468888 0.032300487 -0.014781502 0.99937361 6.8031019e-05
1.6030138 0.0070611211 0.94682175 0.031242043 -0.015667094 0.99939376 6.821625e-05
1.6049463 0.0066666533 0.94675803 0.03065704 -0.016395861 0.99940234 6.7099849e-05
1.6069868 0.0068412293 0.94670314 0.029238533 -0.017583784 0.99942261 6.520332e-05
1.6089779 0.0068566506 0.94665074 0.027952794 -0.018867673 0.99943388 6.3991632e-05
1.6110831 0.0073824869 0.94660836 0.026327956 -0.020274719 0.99944848 6.2333573e-05
1.6130295 0.0069800429 0.9465555 0.025390029 -0.021490313 0.99944675 6.328032e-05
1.614946 0.0066128112 0.9465062 0.024576869 -0.022632426 0.99944198 6.4511398e-05
1.6170473 0.0071475403 0.94647682 0.023426516 -0.023837607 0.99944246 6.3783984e-05
1.6190135 0.0071395272 0.9464404 0.022894815 -0.024900483 0.99942994 6.3232961e-05
1.6210523 0.0073766839 0.94640952 0.02250319 -0.025990572 0.99941224 6.3366446e-05
1.622945 0.007007469 0.94636565 0.022775704 -0.026966244 0.99938184 6.25424e-05
1.6249117 0.0069569969 0.94632721 0.023460252 -0.027902663 0.99934161 5.9982682e-05
1.6269236 0.0067251595 0.94627804 0.024810517 -0.028632291 0.99929112 5.6240784e-05
1.6290382 0.0067996937 0.94623262 0.027852409 -0.028996376 0.99921578 5.2419658e-05
1.6310076 0.0069763241 0.94618118 0.032788541 -0.028969865 0.99911261 5.0572682e-05
1.632799 0.0068927868 0.94611144 0.039394032 -0.028815767 0.99898374 5.0031798e-05
1.6347525 0.0067007542 0.94600773 0.048709005 -0.028682994 0.99878889 5.1862538e-05
1.5913996 0.0096217776 0.94727987 0.037740923 -0.0095531307 0.99924761 4.456169e-05
1.5929431 0.0093742488 0.94721627 0.037111774 -0.010400701 0.99926263 4.9099195e-05
1.5970085 0.0083402926 0.94704616 0.034743171 -0.012756625 0.99932069 6.2674029e-05
1.5992571 0.0088953506 0.94697183 0.032664832 -0.014119992 0.99937063 6.7234199e-05
1.6010566 0.0088777775 0.94691032 0.031364307 -0.014985547 0.9993993 6.8779795e-05
1.6029958 0.0092966165 0.94685572 0.029950589 -0.015947644 0.99942821 6.8535825e-05
1.6050196 0.0088015366 0.94679016 0.029352993 -0.016787836 0.99943292 6.5718457e-05
1.6069833 0.00881154 0.94673884 0.028097939 -0.017849756 0.99944925 6.388114e-05
1.6090745 0.0090853246 0.94669187 0.026567465 -0.019141808 0.99946547 6.2097723e-05
1.610988 0.0093259383 0.94664991 0.025284139 -0.020379165 0.99947309 6.125759e-05
1.6129776 0.0091534313 0.94660437 0.024295302 -0.021538597 0.99947315 6.0276649e-05
1.6150552 0.0089014843 0.94655758 0.023431327 -0.022684585 0.9994688 6.0864764e-05
1.6169826 0.0088615632 0.94651914 0.022691486 -0.023713751 0.99946278 6.0453323e-05
1.6189276 0.0086572543 0.94648153 0.022309549 -0.024741091 0.99944735 6.0699054e-05
1.6210347 0.0090369051 0.94645536 0.022027889 -0.025749374 0.99942863 5.931237e-05
1.6230242 0.0088345632 0.94641602 0.022310086 -0.026726034 0.9993974 5.9578553e-05
1.6250374 0.0089813229 0.94638425 0.023315387 -0.027458245 0.99935597 5.6782159e-05
1.6270671 0.0086209243 0.94633418 0.025256133 -0.028189627 0.99929565 5.4153483e-05
1.6289092 0.0091608018 0.94630694 0.027980611 -0.028361499 0.99923539 5.1002775e-05
1.6309998 0.0095002893 0.94625497 0.033556353 -0.028240629 0.9991253 4.785429e-05
1.63304 0.0091031101 0.94616461 0.041248608 -0.028049575 0.99897248 4.8847669e-05
1.6346842 0.0089514041 0.94607806 0.048749015 -0.027797109 0.99882108 5.0107774e-05
1.5992163 0.010456244 0.94699234 0.031789407 -0.014313156 0.99939537 6.7869689e-05
1.601257 0.010853612 0.9469316 0.030198576 -0.015362436 0.99942958 7.053867e-05
1.6032258 0.011523803 0.94688207 0.028655779 -0.01650152 0.99945635 6.7255758e-05
1.6049963 0.01106361 0.9468286 0.028050844 -0.017222323 0.99946123 6.5923748e-05
1.6069391 0.01094304 0.94677687 0.02688314 -0.018253967 0.99947447 6.2098654e-05
1.6089261 0.010774253 0.9467265 0.025697565 -0.019364886 0.99948329 6.1063067e-05
1.611038 0.010812874 0.94668049 0.024509968 -0.020593718 0.99948794 5.9448626e-05
1.6130117 0.011044535 0.9466446 0.023357874 -0.021711035 0.99949211 5.8257043e-05
1.6148022 0.010796995 0.94660503 0.022700079 -0.022633163 0.99948728 5.7450794e-05
1.6169444 0.010767245 0.9465661 0.021970766 -0.023662342 0.99948061 5.6884608e-05
1.6191529 0.010831272 0.94653183 0.02148333 -0.024671253 0.99946767 5.7256213e-05
1.6210692 0.01142098 0.94651681 0.021352783 -0.025522312 0.99944812 5.4242839e-05
1.6229924 0.011378178 0.94648463 0.021868894 -0.026308622 0.99941647 5.3510154e-05
1.625061 0.011102603 0.94644397 0.023134766 -0.026993303 0.99937159 5.2671337e-05
1.6270406 0.010997119 0.94640332 0.025298001 -0.027550884 0.99931306 5.0181185e-05
1.6289968 0.010951289 0.94635612 0.028458124 -0.02782152 0.99924332 4.8243866e-05
1.6310759 0.011097922 0.94629866 0.034574196 -0.027612152 0.99912632 4.7771555e-05
1.6329377 0.011027677 0.94622189 0.041771427 -0.027302094 0.99898875 4.7702215e-05
1.6346788 0.011069015 0.94613284 0.050361313 -0.026875366 0.998815 4.9337181e-05
1.5969956 0.013380188 0.94710112 0.031805884 -0.013587782 0.99940437 6.5534339e-05
1.5993099 0.012746054 0.94701666 0.030520346 -0.014814187 0.99942738 6.8289752e-05
1.6009556 0.012686344 0.94696426 0.029421521 -0.015678219 0.99944675 6.9197915e-05
1.6029714 0.012891858 0.94690973 0.028029202 -0.016731376 0.99946946 6.7682653e-05
1.6050218 0.012882025 0.94685858 0.02712281 -0.017758828 0.99947691 6.3345869e-05
1.6069876 0.012956895 0.94681412 0.025786811 -0.018745592 0.99949324 6.0524908e-05
1.6090153 0.01256549 0.94676083 0.024680657 -0.019729389 0.99950147 5.9228594e-05
1.6108916 0.013139238 0.94673491 0.023451928 -0.020797558 0.99950927 5.6713037e-05
1.6130242 0.013546557 0.94670302 0.022278419 -0.021926126 0.99951237 5.4821838e-05
1.6150093 0.013151149 0.94665664 0.021616016 -0.022879809 0.99950641 5.4814027e-05
1.6170233 0.013058512 0.9466216 0.021137167 -0.023714645 0.99949783 5.408347e-05
1.618943 0.013035999 0.94659084 0.020872975 -0.024526477 0.99948347 5.1929575e-05
1.6209618 0.012933655 0.94655824 0.021070458 -0.025282444 0.99945986 5.0725786e-05
1.6230366 0.013040062 0.94653022 0.021838345 -0.025943693 0.99942589 4.9518527e-05
