1.489427 0.240240 0.936982 0.000000 0.000000 0.000000 
1.490511 0.240074 0.936992 0.000000 0.000000 0.000000 
1.459632 0.243756 0.936892 0.000000 0.000000 0.000000 
1.460772 0.243606 0.936925 0.000000 0.000000 0.000000 
1.463923 0.243286 0.936996 0.000000 0.000000 0.000000 
1.465025 0.243208 0.936843 0.000000 0.000000 0.000000 
1.466971 0.243021 0.936810 0.000000 0.000000 0.000000 
1.469060 0.242716 0.936951 0.000000 0.000000 0.000000 
1.470975 0.242633 0.936769 0.000000 0.000000 0.000000 
1.472992 0.242416 0.936748 0.000000 0.000000 0.000000 
1.474290 0.242197 0.936955 0.000000 0.000000 0.000000 
1.476875 0.242765 0.936747 0.000000 0.000000 0.000000 
1.478737 0.243042 0.936786 0.000000 0.000000 0.000000 
1.483393 0.242915 0.936872 0.000000 0.000000 0.000000 
1.484753 0.242850 0.936916 0.000000 0.000000 0.000000 
1.454764 0.244397 0.936998 0.000000 0.000000 0.000000 
1.459684 0.244879 0.936943 0.000000 0.000000 0.000000 
1.460922 0.245099 0.936930 0.000000 0.000000 0.000000 
1.462065 0.245664 0.936974 0.000000 0.000000 0.000000 
1.465255 0.244888 0.936856 0.000000 0.000000 0.000000 
1.466960 0.244921 0.936809 0.000000 0.000000 0.000000 
1.468729 0.244646 0.936965 0.000000 0.000000 0.000000 
1.471007 0.244783 0.936810 0.000000 0.000000 0.000000 
1.472996 0.244660 0.936771 0.000000 0.000000 0.000000 
1.474611 0.244491 0.936963 0.000000 0.000000 0.000000 
1.477105 0.244989 0.936797 0.000000 0.000000 0.000000 
1.478945 0.245179 0.936799 0.000000 0.000000 0.000000 
1.483600 0.245335 0.936899 0.000000 0.000000 0.000000 
1.484980 0.245387 0.936918 0.000000 0.000000 0.000000 
1.486071 0.245607 0.936987 0.000000 0.000000 0.000000 
1.489653 0.245215 0.936993 0.000000 0.000000 0.000000 
1.459935 0.247011 0.936973 0.000000 0.000000 0.000000 
1.461068 0.247102 0.936928 0.000000 0.000000 0.000000 
1.462157 0.247251 0.936966 0.000000 0.000000 0.000000 
1.465493 0.247419 0.936887 0.000000 0.000000 0.000000 
1.467013 0.247421 0.936818 0.000000 0.000000 0.000000 
1.468684 0.247268 0.936938 0.000000 0.000000 0.000000 
1.471137 0.247218 0.936839 0.000000 0.000000 0.000000 
1.472982 0.247107 0.936767 0.000000 0.000000 0.000000 
1.474399 0.247401 0.936938 0.000000 0.000000 0.000000 
1.477201 0.246954 0.936821 0.000000 0.000000 0.000000 
1.478973 0.246927 0.936807 0.000000 0.000000 0.000000 
1.483615 0.246734 0.936910 0.000000 0.000000 0.000000 
1.484897 0.246805 0.936919 0.000000 0.000000 0.000000 
1.486062 0.246997 0.936994 0.000000 0.000000 0.000000 
1.459945 0.248617 0.936944 0.000000 0.000000 0.000000 
1.461075 0.248928 0.936940 0.000000 0.000000 0.000000 
1.462171 0.248969 0.936939 0.000000 0.000000 0.000000 
1.465500 0.248715 0.936875 0.000000 0.000000 0.000000 
1.467050 0.248751 0.936839 0.000000 0.000000 0.000000 
1.468507 0.248914 0.936892 0.000000 0.000000 0.000000 
1.471298 0.248904 0.936846 0.000000 0.000000 0.000000 
1.472986 0.248834 0.936781 0.000000 0.000000 0.000000 
1.474368 0.249256 0.936906 0.000000 0.000000 0.000000 
1.477413 0.248999 0.936847 0.000000 0.000000 0.000000 
1.478932 0.249006 0.936820 0.000000 0.000000 0.000000 
1.480121 0.249147 0.936908 0.000000 0.000000 0.000000 
1.483858 0.248668 0.936934 0.000000 0.000000 0.000000 
1.484913 0.248862 0.936936 0.000000 0.000000 0.000000 
1.486064 0.249122 0.936998 0.000000 0.000000 0.000000 
1.459988 0.250189 0.936969 0.000000 0.000000 0.000000 
1.461237 0.250917 0.936955 0.000000 0.000000 0.000000 
1.462314 0.251183 0.936966 0.000000 0.000000 0.000000 
1.465706 0.250798 0.936926 0.000000 0.000000 0.000000 
1.466967 0.250868 0.936860 0.000000 0.000000 0.000000 
1.468491 0.250853 0.936876 0.000000 0.000000 0.000000 
1.471549 0.250772 0.936881 0.000000 0.000000 0.000000 
1.473083 0.250936 0.936820 0.000000 0.000000 0.000000 
1.474411 0.251290 0.936873 0.000000 0.000000 0.000000 
1.477639 0.251680 0.936900 0.000000 0.000000 0.000000 
1.478997 0.251545 0.936871 0.000000 0.000000 0.000000 
1.480264 0.251423 0.936871 0.000000 0.000000 0.000000 
1.483991 0.250918 0.936942 0.000000 0.000000 0.000000 
1.485022 0.250837 0.936952 0.000000 0.000000 0.000000 
1.486079 0.250701 0.936990 0.000000 0.000000 0.000000 
1.461458 0.253563 0.936980 0.000000 0.000000 0.000000 
1.462645 0.253449 0.936971 0.000000 0.000000 0.000000 
1.465819 0.253192 0.936956 0.000000 0.000000 0.000000 
1.466997 0.253051 0.936883 0.000000 0.000000 0.000000 
1.468524 0.252866 0.936889 0.000000 0.000000 0.000000 
1.471690 0.252500 0.936908 0.000000 0.000000 0.000000 
1.472980 0.252422 0.936815 0.000000 0.000000 0.000000 
1.474523 0.252210 0.936885 0.000000 0.000000 0.000000 
1.497508 0.211795 0.937587 0.000000 0.000000 0.000000 
1.499019 0.211420 0.937871 0.000000 0.000000 0.000000 
1.500996 0.211195 0.937871 0.000000 0.000000 0.000000 
1.502384 0.211048 0.937896 0.000000 0.000000 0.000000 
1.483529 0.213831 0.937102 0.000000 0.000000 0.000000 
1.484693 0.213734 0.937050 0.000000 0.000000 0.000000 
1.487935 0.213360 0.937006 0.000000 0.000000 0.000000 
1.488877 0.213243 0.937026 0.000000 0.000000 0.000000 
1.491186 0.212949 0.937135 0.000000 0.000000 0.000000 
1.493016 0.212500 0.937508 0.000000 0.000000 0.000000 
1.494991 0.212284 0.937493 0.000000 0.000000 0.000000 
1.496631 0.212327 0.937398 0.000000 0.000000 0.000000 
1.498982 0.212967 0.937824 0.000000 0.000000 0.000000 
1.501024 0.212897 0.937869 0.000000 0.000000 0.000000 
1.502538 0.213008 0.937878 0.000000 0.000000 0.000000 
1.465818 0.215959 0.937137 0.000000 0.000000 0.000000 
1.466099 0.215949 0.937101 0.000000 0.000000 0.000000 
1.471283 0.215404 0.937016 0.000000 0.000000 0.000000 
1.472119 0.215419 0.937007 0.000000 0.000000 0.000000 
1.477113 0.214571 0.937286 0.000000 0.000000 0.000000 
1.478400 0.214528 0.937144 0.000000 0.000000 0.000000 
1.483541 0.215065 0.937085 0.000000 0.000000 0.000000 
1.484730 0.215168 0.937068 0.000000 0.000000 0.000000 
1.489335 0.214829 0.937033 0.000000 0.000000 0.000000 
1.491153 0.215067 0.937117 0.000000 0.000000 0.000000 
1.493043 0.215028 0.937496 0.000000 0.000000 0.000000 
1.494988 0.214913 0.937542 0.000000 0.000000 0.000000 
1.496989 0.215007 0.937435 0.000000 0.000000 0.000000 
1.498980 0.215014 0.937801 0.000000 0.000000 0.000000 
1.501046 0.214888 0.937887 0.000000 0.000000 0.000000 
1.502649 0.214962 0.937874 0.000000 0.000000 0.000000 
1.445798 0.217897 0.937854 0.000000 0.000000 0.000000 
1.449139 0.217713 0.937540 0.000000 0.000000 0.000000 
1.451007 0.217715 0.937207 0.000000 0.000000 0.000000 
1.453020 0.217247 0.937566 0.000000 0.000000 0.000000 
1.455023 0.217003 0.937611 0.000000 0.000000 0.000000 
1.456083 0.217297 0.937023 0.000000 0.000000 0.000000 
1.459400 0.216860 0.937096 0.000000 0.000000 0.000000 
1.460509 0.216725 0.937101 0.000000 0.000000 0.000000 
1.465591 0.216114 0.937030 0.000000 0.000000 0.000000 
1.466264 0.216523 0.937031 0.000000 0.000000 0.000000 
1.471824 0.217104 0.937037 0.000000 0.000000 0.000000 
1.472211 0.217028 0.937021 0.000000 0.000000 0.000000 
1.477288 0.217020 0.937245 0.000000 0.000000 0.000000 
1.478602 0.216973 0.937199 0.000000 0.000000 0.000000 
1.483568 0.217093 0.937095 0.000000 0.000000 0.000000 
1.484891 0.217077 0.937099 0.000000 0.000000 0.000000 
1.486828 0.217496 0.937017 0.000000 0.000000 0.000000 
1.489348 0.216974 0.937028 0.000000 0.000000 0.000000 
1.491090 0.216945 0.937090 0.000000 0.000000 0.000000 
1.493002 0.217024 0.937440 0.000000 0.000000 0.000000 
1.494988 0.216942 0.937569 0.000000 0.000000 0.000000 
1.497022 0.217078 0.937432 0.000000 0.000000 0.000000 
1.498954 0.217016 0.937777 0.000000 0.000000 0.000000 
1.501083 0.216899 0.937917 0.000000 0.000000 0.000000 
1.502705 0.216953 0.937886 0.000000 0.000000 0.000000 
1.439418 0.219012 0.937980 0.000000 0.000000 0.000000 
1.440009 0.219811 0.937999 0.000000 0.000000 0.000000 
1.443307 0.218324 0.937827 0.000000 0.000000 0.000000 
1.444858 0.218299 0.937640 0.000000 0.000000 0.000000 
1.446752 0.219220 0.937962 0.000000 0.000000 0.000000 
1.449161 0.219015 0.937565 0.000000 0.000000 0.000000 
1.451008 0.219062 0.937215 0.000000 0.000000 0.000000 
1.452998 0.218955 0.937518 0.000000 0.000000 0.000000 
1.455050 0.219059 0.937654 0.000000 0.000000 0.000000 
1.456232 0.219110 0.937101 0.000000 0.000000 0.000000 
1.459468 0.219040 0.937081 0.000000 0.000000 0.000000 
1.460616 0.219182 0.937096 0.000000 0.000000 0.000000 
1.465358 0.218883 0.937022 0.000000 0.000000 0.000000 
1.466436 0.219177 0.937035 0.000000 0.000000 0.000000 
1.471329 0.219682 0.937002 0.000000 0.000000 0.000000 
1.472243 0.218827 0.937016 0.000000 0.000000 0.000000 
1.477373 0.218999 0.937254 0.000000 0.000000 0.000000 
1.478745 0.219042 0.937209 0.000000 0.000000 0.000000 
1.483700 0.219136 0.937100 0.000000 0.000000 0.000000 
1.484974 0.219063 0.937132 0.000000 0.000000 0.000000 
1.486381 0.219483 0.937039 0.000000 0.000000 0.000000 
1.489278 0.219004 0.937022 0.000000 0.000000 0.000000 
1.491137 0.218989 0.937077 0.000000 0.000000 0.000000 
1.493016 0.218950 0.937398 0.000000 0.000000 0.000000 
1.495004 0.218913 0.937592 0.000000 0.000000 0.000000 
1.496946 0.219033 0.937438 0.000000 0.000000 0.000000 
1.498939 0.219035 0.937744 0.000000 0.000000 0.000000 
1.501134 0.218863 0.937945 0.000000 0.000000 0.000000 
1.502870 0.219031 0.937912 0.000000 0.000000 0.000000 
1.439685 0.221145 0.937988 0.000000 0.000000 0.000000 
1.440152 0.221097 0.937986 0.000000 0.000000 0.000000 
1.443432 0.220991 0.937819 0.000000 0.000000 0.000000 
1.444979 0.220965 0.937627 0.000000 0.000000 0.000000 
1.446284 0.221205 0.937833 0.000000 0.000000 0.000000 
1.449301 0.221031 0.937628 0.000000 0.000000 0.000000 
1.451013 0.221097 0.937211 0.000000 0.000000 0.000000 
1.453003 0.220971 0.937405 0.000000 0.000000 0.000000 
1.455086 0.221032 0.937691 0.000000 0.000000 0.000000 
1.456323 0.220970 0.937155 0.000000 0.000000 0.000000 
1.459510 0.220993 0.937074 0.000000 0.000000 0.000000 
1.460747 0.221081 0.937097 0.000000 0.000000 0.000000 
1.465657 0.221391 0.937070 0.000000 0.000000 0.000000 
1.466581 0.221376 0.937027 0.000000 0.000000 0.000000 
1.471720 0.220965 0.937027 0.000000 0.000000 0.000000 
1.472555 0.220884 0.937034 0.000000 0.000000 0.000000 
1.477493 0.220970 0.937224 0.000000 0.000000 0.000000 
1.478825 0.220925 0.937252 0.000000 0.000000 0.000000 
1.483768 0.221184 0.937054 0.000000 0.000000 0.000000 
1.484972 0.221049 0.937146 0.000000 0.000000 0.000000 
1.486467 0.220914 0.937036 0.000000 0.000000 0.000000 
1.489284 0.220844 0.937029 0.000000 0.000000 0.000000 
1.491143 0.221066 0.937082 0.000000 0.000000 0.000000 
1.493018 0.221042 0.937340 0.000000 0.000000 0.000000 
1.494990 0.221005 0.937609 0.000000 0.000000 0.000000 
1.496967 0.221060 0.937454 0.000000 0.000000 0.000000 
1.498977 0.221028 0.937683 0.000000 0.000000 0.000000 
1.501183 0.220784 0.937951 0.000000 0.000000 0.000000 
1.502944 0.221005 0.937925 0.000000 0.000000 0.000000 
1.504025 0.221430 0.937976 0.000000 0.000000 0.000000 
1.439885 0.223187 0.937986 0.000000 0.000000 0.000000 
1.440195 0.222842 0.937981 0.000000 0.000000 0.000000 
1.443487 0.222972 0.937843 0.000000 0.000000 0.000000 
1.445004 0.222985 0.937615 0.000000 0.000000 0.000000 
1.446586 0.223075 0.937777 0.000000 0.000000 0.000000 
1.449401 0.223042 0.937641 0.000000 0.000000 0.000000 
1.450984 0.223088 0.937204 0.000000 0.000000 0.000000 
1.452975 0.223015 0.937332 0.000000 0.000000 0.000000 
1.455030 0.222987 0.937699 0.000000 0.000000 0.000000 
1.456425 0.222988 0.937221 0.000000 0.000000 0.000000 
1.459700 0.223015 0.937111 0.000000 0.000000 0.000000 
1.460949 0.223056 0.937089 0.000000 0.000000 0.000000 
1.465759 0.223307 0.937020 0.000000 0.000000 0.000000 
1.466717 0.223064 0.937015 0.000000 0.000000 0.000000 
1.471875 0.223724 0.937041 0.000000 0.000000 0.000000 
1.472618 0.222801 0.937027 0.000000 0.000000 0.000000 
1.477604 0.222918 0.937256 0.000000 0.000000 0.000000 
1.478951 0.222969 0.937251 0.000000 0.000000 0.000000 
1.480067 0.223394 0.937056 0.000000 0.000000 0.000000 
1.483845 0.223098 0.937046 0.000000 0.000000 0.000000 
1.485030 0.223053 0.937143 0.000000 0.000000 0.000000 
1.486444 0.223186 0.937041 0.000000 0.000000 0.000000 
1.489251 0.222916 0.937029 0.000000 0.000000 0.000000 
1.491048 0.222998 0.937083 0.000000 0.000000 0.000000 
1.493003 0.222995 0.937305 0.000000 0.000000 0.000000 
1.494972 0.222896 0.937640 0.000000 0.000000 0.000000 
1.496974 0.222988 0.937472 0.000000 0.000000 0.000000 
1.498973 0.223016 0.937674 0.000000 0.000000 0.000000 
1.501006 0.222805 0.937959 0.000000 0.000000 0.000000 
1.502942 0.223003 0.937934 0.000000 0.000000 0.000000 
1.504226 0.222860 0.937929 0.000000 0.000000 0.000000 
1.439851 0.224925 0.937988 0.000000 0.000000 0.000000 
1.440478 0.225274 0.937970 0.000000 0.000000 0.000000 
1.443583 0.224801 0.937870 0.000000 0.000000 0.000000 
1.445020 0.224884 0.937618 0.000000 0.000000 0.000000 
1.446786 0.225045 0.937749 0.000000 0.000000 0.000000 
1.449395 0.225004 0.937739 0.000000 0.000000 0.000000 
1.450970 0.225073 0.937250 0.000000 0.000000 0.000000 
1.452969 0.225024 0.937271 0.000000 0.000000 0.000000 
1.455011 0.225070 0.937757 0.000000 0.000000 0.000000 
1.456491 0.225077 0.937326 0.000000 0.000000 0.000000 
1.459800 0.225017 0.937077 0.000000 0.000000 0.000000 
1.460944 0.225125 0.937084 0.000000 0.000000 0.000000 
1.465844 0.224601 0.937022 0.000000 0.000000 0.000000 
1.466658 0.224975 0.937023 0.000000 0.000000 0.000000 
1.472918 0.225002 0.937016 0.000000 0.000000 0.000000 
1.477719 0.224827 0.937254 0.000000 0.000000 0.000000 
1.478991 0.224870 0.937293 0.000000 0.000000 0.000000 
1.480122 0.224963 0.937069 0.000000 0.000000 0.000000 
1.483865 0.224696 0.937024 0.000000 0.000000 0.000000 
1.485021 0.225021 0.937171 0.000000 0.000000 0.000000 
1.486635 0.224980 0.937070 0.000000 0.000000 0.000000 
1.489059 0.224921 0.937035 0.000000 0.000000 0.000000 
1.491078 0.224980 0.937085 0.000000 0.000000 0.000000 
1.493031 0.225047 0.937293 0.000000 0.000000 0.000000 
1.494986 0.224941 0.937673 0.000000 0.000000 0.000000 
1.496982 0.225034 0.937522 0.000000 0.000000 0.000000 
1.499005 0.225105 0.937635 0.000000 0.000000 0.000000 
1.500417 0.225176 0.937956 0.000000 0.000000 0.000000 
1.503036 0.225038 0.937950 0.000000 0.000000 0.000000 
1.504200 0.225033 0.937962 0.000000 0.000000 0.000000 
1.439802 0.227126 0.937979 0.000000 0.000000 0.000000 
1.440723 0.227073 0.937965 0.000000 0.000000 0.000000 
1.443678 0.226979 0.937910 0.000000 0.000000 0.000000 
1.445007 0.226960 0.937627 0.000000 0.000000 0.000000 
1.446858 0.227026 0.937697 0.000000 0.000000 0.000000 
1.449475 0.226975 0.937779 0.000000 0.000000 0.000000 
1.450958 0.227059 0.937271 0.000000 0.000000 0.000000 
1.452940 0.227017 0.937165 0.000000 0.000000 0.000000 
1.454982 0.227021 0.937743 0.000000 0.000000 0.000000 
1.456619 0.227028 0.937397 0.000000 0.000000 0.000000 
1.459888 0.226712 0.937081 0.000000 0.000000 0.000000 
1.461005 0.226966 0.937095 0.000000 0.000000 0.000000 
1.462111 0.227151 0.937034 0.000000 0.000000 0.000000 
1.465902 0.226884 0.937016 0.000000 0.000000 0.000000 
1.466765 0.227247 0.937023 0.000000 0.000000 0.000000 
1.472981 0.227110 0.937027 0.000000 0.000000 0.000000 
1.477861 0.226881 0.937234 0.000000 0.000000 0.000000 
1.478987 0.226963 0.937360 0.000000 0.000000 0.000000 
1.480252 0.227041 0.937127 0.000000 0.000000 0.000000 
1.485132 0.227090 0.937160 0.000000 0.000000 0.000000 
1.486775 0.227119 0.937083 0.000000 0.000000 0.000000 
1.489309 0.226955 0.937032 0.000000 0.000000 0.000000 
1.491046 0.227034 0.937080 0.000000 0.000000 0.000000 
1.493030 0.227002 0.937269 0.000000 0.000000 0.000000 
1.495004 0.226958 0.937661 0.000000 0.000000 0.000000 
1.496947 0.226992 0.937575 0.000000 0.000000 0.000000 
1.498983 0.227063 0.937608 0.000000 0.000000 0.000000 
1.500355 0.226889 0.937925 0.000000 0.000000 0.000000 
1.503233 0.226964 0.937960 0.000000 0.000000 0.000000 
1.504203 0.226795 0.937973 0.000000 0.000000 0.000000 
1.439848 0.229073 0.937966 0.000000 0.000000 0.000000 
1.440793 0.229040 0.937969 0.000000 0.000000 0.000000 
1.443789 0.228678 0.937912 0.000000 0.000000 0.000000 
1.445010 0.228862 0.937663 0.000000 0.000000 0.000000 
1.446660 0.228996 0.937596 0.000000 0.000000 0.000000 
1.449339 0.229005 0.937898 0.000000 0.000000 0.000000 
1.450957 0.229016 0.937321 0.000000 0.000000 0.000000 
1.452963 0.229006 0.937151 0.000000 0.000000 0.000000 
1.455004 0.229009 0.937693 0.000000 0.000000 0.000000 
1.456748 0.229032 0.937427 0.000000 0.000000 0.000000 
1.458412 0.229553 0.937007 0.000000 0.000000 0.000000 
1.461189 0.229052 0.937085 0.000000 0.000000 0.000000 
1.462251 0.229094 0.937045 0.000000 0.000000 0.000000 
1.467167 0.229244 0.937026 0.000000 0.000000 0.000000 
1.473361 0.229051 0.937024 0.000000 0.000000 0.000000 
1.477922 0.228727 0.937126 0.000000 0.000000 0.000000 
1.479004 0.228961 0.937393 0.000000 0.000000 0.000000 
1.480404 0.229022 0.937203 0.000000 0.000000 0.000000 
1.485211 0.229072 0.937161 0.000000 0.000000 0.000000 
1.486879 0.229072 0.937113 0.000000 0.000000 0.000000 
1.489152 0.229049 0.937037 0.000000 0.000000 0.000000 
1.491051 0.229013 0.937093 0.000000 0.000000 0.000000 
1.493005 0.229001 0.937225 0.000000 0.000000 0.000000 
1.494983 0.228952 0.937647 0.000000 0.000000 0.000000 
1.496956 0.229019 0.937610 0.000000 0.000000 0.000000 
1.498995 0.229011 0.937590 0.000000 0.000000 0.000000 
1.500390 0.229046 0.937880 0.000000 0.000000 0.000000 
1.503456 0.228918 0.937959 0.000000 0.000000 0.000000 
1.504225 0.228785 0.937950 0.000000 0.000000 0.000000 
1.439646 0.230886 0.937981 0.000000 0.000000 0.000000 
1.441007 0.231050 0.937956 0.000000 0.000000 0.000000 
1.443165 0.230914 0.937971 0.000000 0.000000 0.000000 
1.444983 0.230923 0.937695 0.000000 0.000000 0.000000 
1.446811 0.231025 0.937572 0.000000 0.000000 0.000000 
1.449092 0.231029 0.937930 0.000000 0.000000 0.000000 
1.450978 0.231095 0.937395 0.000000 0.000000 0.000000 
1.453000 0.231116 0.937129 0.000000 0.000000 0.000000 
1.455028 0.230997 0.937635 0.000000 0.000000 0.000000 
1.456901 0.231016 0.937503 0.000000 0.000000 0.000000 
1.458017 0.230925 0.937025 0.000000 0.000000 0.000000 
1.461176 0.230973 0.937104 0.000000 0.000000 0.000000 
1.462355 0.230982 0.937084 0.000000 0.000000 0.000000 
1.467373 0.230798 0.937029 0.000000 0.000000 0.000000 
1.473602 0.230868 0.937030 0.000000 0.000000 0.000000 
1.474194 0.231290 0.937004 0.000000 0.000000 0.000000 
1.479061 0.230925 0.937373 0.000000 0.000000 0.000000 
1.480481 0.230982 0.937274 0.000000 0.000000 0.000000 
1.485248 0.230988 0.937165 0.000000 0.000000 0.000000 
1.486975 0.230979 0.937127 0.000000 0.000000 0.000000 
1.489114 0.230918 0.937037 0.000000 0.000000 0.000000 
1.491023 0.231017 0.937093 0.000000 0.000000 0.000000 
1.493030 0.231030 0.937204 0.000000 0.000000 0.000000 
1.495012 0.230976 0.937636 0.000000 0.000000 0.000000 
1.496969 0.231065 0.937646 0.000000 0.000000 0.000000 
1.498992 0.230994 0.937590 0.000000 0.000000 0.000000 
1.500473 0.231020 0.937862 0.000000 0.000000 0.000000 
1.503429 0.230987 0.937976 0.000000 0.000000 0.000000 
1.504280 0.230997 0.937972 0.000000 0.000000 0.000000 
1.439927 0.232720 0.937989 0.000000 0.000000 0.000000 
1.441130 0.232948 0.937946 0.000000 0.000000 0.000000 
1.442814 0.233023 0.937969 0.000000 0.000000 0.000000 
1.445022 0.232922 0.937733 0.000000 0.000000 0.000000 
1.446903 0.232930 0.937570 0.000000 0.000000 0.000000 
1.448734 0.233015 0.937950 0.000000 0.000000 0.000000 
1.450990 0.233053 0.937482 0.000000 0.000000 0.000000 
1.453004 0.233108 0.937122 0.000000 0.000000 0.000000 
1.455039 0.233022 0.937567 0.000000 0.000000 0.000000 
1.456977 0.233049 0.937564 0.000000 0.000000 0.000000 
1.458071 0.233807 0.937050 0.000000 0.000000 0.000000 
1.461276 0.232946 0.937106 0.000000 0.000000 0.000000 
1.462481 0.232951 0.937094 0.000000 0.000000 0.000000 
1.467271 0.232967 0.937030 0.000000 0.000000 0.000000 
1.468457 0.233352 0.937036 0.000000 0.000000 0.000000 
1.473529 0.232748 0.937029 0.000000 0.000000 0.000000 
1.474223 0.233187 0.937020 0.000000 0.000000 0.000000 
1.479175 0.232936 0.937398 0.000000 0.000000 0.000000 
1.480682 0.233028 0.937319 0.000000 0.000000 0.000000 
1.485380 0.232956 0.937166 0.000000 0.000000 0.000000 
1.486985 0.232980 0.937157 0.000000 0.000000 0.000000 
1.489150 0.232924 0.937052 0.000000 0.000000 0.000000 
1.491050 0.233041 0.937088 0.000000 0.000000 0.000000 
1.493032 0.233068 0.937227 0.000000 0.000000 0.000000 
1.495456 0.233623 0.937695 0.000000 0.000000 0.000000 
1.496961 0.233730 0.937716 0.000000 0.000000 0.000000 
1.498994 0.233589 0.937590 0.000000 0.000000 0.000000 
1.500561 0.233252 0.937862 0.000000 0.000000 0.000000 
1.503724 0.232832 0.937972 0.000000 0.000000 0.000000 
1.504370 0.233125 0.937989 0.000000 0.000000 0.000000 
1.441245 0.234962 0.937939 0.000000 0.000000 0.000000 
1.442555 0.235014 0.937964 0.000000 0.000000 0.000000 
1.445076 0.234893 0.937755 0.000000 0.000000 0.000000 
1.446964 0.234962 0.937531 0.000000 0.000000 0.000000 
1.448743 0.235167 0.937943 0.000000 0.000000 0.000000 
1.451142 0.234940 0.937534 0.000000 0.000000 0.000000 
1.453009 0.235017 0.937126 0.000000 0.000000 0.000000 
1.455014 0.235010 0.937476 0.000000 0.000000 0.000000 
1.457011 0.235068 0.937606 0.000000 0.000000 0.000000 
1.458190 0.235171 0.937072 0.000000 0.000000 0.000000 
1.461418 0.234904 0.937093 0.000000 0.000000 0.000000 
1.462560 0.234945 0.937101 0.000000 0.000000 0.000000 
1.467564 0.235087 0.937018 0.000000 0.000000 0.000000 
1.468355 0.235130 0.937042 0.000000 0.000000 0.000000 
1.473607 0.235141 0.937024 0.000000 0.000000 0.000000 
1.474261 0.235214 0.937026 0.000000 0.000000 0.000000 
1.479268 0.234949 0.937419 0.000000 0.000000 0.000000 
1.480608 0.235741 0.937467 0.000000 0.000000 0.000000 
1.485551 0.235517 0.937144 0.000000 0.000000 0.000000 
1.486997 0.235335 0.937208 0.000000 0.000000 0.000000 
1.489023 0.235214 0.937051 0.000000 0.000000 0.000000 
1.491079 0.234991 0.937075 0.000000 0.000000 0.000000 
1.493021 0.234701 0.937228 0.000000 0.000000 0.000000 
1.494786 0.234349 0.937539 0.000000 0.000000 0.000000 
1.496994 0.235079 0.937726 0.000000 0.000000 0.000000 
1.499007 0.235018 0.937601 0.000000 0.000000 0.000000 
1.500648 0.235016 0.937815 0.000000 0.000000 0.000000 
1.503641 0.234849 0.937991 0.000000 0.000000 0.000000 
1.504841 0.234997 0.937981 0.000000 0.000000 0.000000 
1.441279 0.236846 0.937940 0.000000 0.000000 0.000000 
1.442671 0.236910 0.937947 0.000000 0.000000 0.000000 
1.445172 0.236984 0.937775 0.000000 0.000000 0.000000 
1.447004 0.237015 0.937533 0.000000 0.000000 0.000000 
1.448697 0.237157 0.937874 0.000000 0.000000 0.000000 
1.451298 0.236941 0.937570 0.000000 0.000000 0.000000 
1.452988 0.236985 0.937143 0.000000 0.000000 0.000000 
1.455017 0.237034 0.937385 0.000000 0.000000 0.000000 
1.457029 0.237105 0.937694 0.000000 0.000000 0.000000 
1.458227 0.237105 0.937129 0.000000 0.000000 0.000000 
1.461577 0.236994 0.937063 0.000000 0.000000 0.000000 
1.462684 0.237007 0.937120 0.000000 0.000000 0.000000 
1.467851 0.237726 0.937020 0.000000 0.000000 0.000000 
1.468584 0.237741 0.937021 0.000000 0.000000 0.000000 
1.473355 0.237148 0.937014 0.000000 0.000000 0.000000 
1.474441 0.237041 0.937037 0.000000 0.000000 0.000000 
1.479342 0.236274 0.937408 0.000000 0.000000 0.000000 
1.481115 0.236269 0.937254 0.000000 0.000000 0.000000 
1.482147 0.237734 0.937033 0.000000 0.000000 0.000000 
1.485551 0.237049 0.937108 0.000000 0.000000 0.000000 
1.486981 0.236962 0.937202 0.000000 0.000000 0.000000 
1.488924 0.236985 0.937074 0.000000 0.000000 0.000000 
1.490986 0.236982 0.937096 0.000000 0.000000 0.000000 
1.493036 0.237036 0.937199 0.000000 0.000000 0.000000 
1.494964 0.236946 0.937496 0.000000 0.000000 0.000000 
1.496988 0.237060 0.937780 0.000000 0.000000 0.000000 
1.499036 0.237086 0.937637 0.000000 0.000000 0.000000 
1.500717 0.237066 0.937839 0.000000 0.000000 0.000000 
1.503699 0.237786 0.937973 0.000000 0.000000 0.000000 
1.505009 0.237546 0.937981 0.000000 0.000000 0.000000 
1.441291 0.238974 0.937949 0.000000 0.000000 0.000000 
1.442688 0.239023 0.937933 0.000000 0.000000 0.000000 
1.445193 0.239320 0.937867 0.000000 0.000000 0.000000 
1.447384 0.239702 0.937523 0.000000 0.000000 0.000000 
1.448815 0.239574 0.937798 0.000000 0.000000 0.000000 
1.451325 0.239351 0.937679 0.000000 0.000000 0.000000 
1.452962 0.239476 0.937180 0.000000 0.000000 0.000000 
1.454952 0.239211 0.937287 0.000000 0.000000 0.000000 
1.457005 0.238746 0.937700 0.000000 0.000000 0.000000 
1.458374 0.238924 0.937172 0.000000 0.000000 0.000000 
1.461709 0.238631 0.937053 0.000000 0.000000 0.000000 
1.462837 0.238450 0.937134 0.000000 0.000000 0.000000 
1.467680 0.239037 0.937017 0.000000 0.000000 0.000000 
1.468645 0.239149 0.937022 0.000000 0.000000 0.000000 
1.473547 0.238875 0.937016 0.000000 0.000000 0.000000 
1.474731 0.239012 0.937040 0.000000 0.000000 0.000000 
1.479513 0.238820 0.937437 0.000000 0.000000 0.000000 
1.481031 0.238955 0.937413 0.000000 0.000000 0.000000 
1.482156 0.239028 0.937050 0.000000 0.000000 0.000000 
1.485632 0.239023 0.937086 0.000000 0.000000 0.000000 
1.487006 0.239068 0.937226 0.000000 0.000000 0.000000 
1.488959 0.239028 0.937107 0.000000 0.000000 0.000000 
1.491248 0.239669 0.937143 0.000000 0.000000 0.000000 
1.493016 0.239484 0.937235 0.000000 0.000000 0.000000 
1.494989 0.239152 0.937450 0.000000 0.000000 0.000000 
1.496998 0.238745 0.937786 0.000000 0.000000 0.000000 
1.499023 0.238610 0.937649 0.000000 0.000000 0.000000 
1.500778 0.238281 0.937853 0.000000 0.000000 0.000000 
1.441294 0.240474 0.937967 0.000000 0.000000 0.000000 
1.442626 0.240370 0.937926 0.000000 0.000000 0.000000 
1.445482 0.240174 0.937808 0.000000 0.000000 0.000000 
1.446746 0.240222 0.937568 0.000000 0.000000 0.000000 
1.448835 0.241074 0.937736 0.000000 0.000000 0.000000 
1.451525 0.240919 0.937681 0.000000 0.000000 0.000000 
1.453004 0.241029 0.937187 0.000000 0.000000 0.000000 
1.454973 0.240993 0.937244 0.000000 0.000000 0.000000 
1.457014 0.241035 0.937702 0.000000 0.000000 0.000000 
1.458528 0.241095 0.937239 0.000000 0.000000 0.000000 
1.461733 0.241132 0.937097 0.000000 0.000000 0.000000 
1.462986 0.240937 0.937131 0.000000 0.000000 0.000000 
1.464105 0.241458 0.937043 0.000000 0.000000 0.000000 
1.467859 0.241161 0.937036 0.000000 0.000000 0.000000 
1.468904 0.241230 0.937043 0.000000 0.000000 0.000000 
1.473792 0.240846 0.937025 0.000000 0.000000 0.000000 
1.475100 0.241739 0.937065 0.000000 0.000000 0.000000 
1.479672 0.241006 0.937449 0.000000 0.000000 0.000000 
1.481001 0.240857 0.937507 0.000000 0.000000 0.000000 
1.482297 0.241001 0.937092 0.000000 0.000000 0.000000 
1.485726 0.240641 0.937078 0.000000 0.000000 0.000000 
1.486985 0.240351 0.937280 0.000000 0.000000 0.000000 
1.488940 0.240254 0.937118 0.000000 0.000000 0.000000 
1.490443 0.240248 0.937086 0.000000 0.000000 0.000000 
1.493014 0.240965 0.937264 0.000000 0.000000 0.000000 
1.494958 0.240859 0.937457 0.000000 0.000000 0.000000 
1.496947 0.240859 0.937842 0.000000 0.000000 0.000000 
1.499035 0.240752 0.937713 0.000000 0.000000 0.000000 
1.500849 0.240826 0.937819 0.000000 0.000000 0.000000 
1.441539 0.242841 0.937946 0.000000 0.000000 0.000000 
1.442735 0.242958 0.937919 0.000000 0.000000 0.000000 
1.445331 0.243118 0.937911 0.000000 0.000000 0.000000 
1.446959 0.242913 0.937587 0.000000 0.000000 0.000000 
1.448637 0.243117 0.937593 0.000000 0.000000 0.000000 
1.451728 0.242930 0.937796 0.000000 0.000000 0.000000 
1.452980 0.243060 0.937298 0.000000 0.000000 0.000000 
1.455181 0.243253 0.937293 0.000000 0.000000 0.000000 
1.457000 0.243508 0.937748 0.000000 0.000000 0.000000 
1.458654 0.243593 0.937305 0.000000 0.000000 0.000000 
1.461747 0.243385 0.937113 0.000000 0.000000 0.000000 
1.462990 0.243228 0.937160 0.000000 0.000000 0.000000 
1.464128 0.243157 0.937051 0.000000 0.000000 0.000000 
1.467885 0.242777 0.937020 0.000000 0.000000 0.000000 
1.468872 0.242718 0.937034 0.000000 0.000000 0.000000 
1.473916 0.242565 0.937038 0.000000 0.000000 0.000000 
1.474749 0.242361 0.937038 0.000000 0.000000 0.000000 
1.476082 0.243927 0.937022 0.000000 0.000000 0.000000 
1.479700 0.242831 0.937357 0.000000 0.000000 0.000000 
1.480988 0.242834 0.937568 0.000000 0.000000 0.000000 
1.482441 0.243006 0.937186 0.000000 0.000000 0.000000 
1.485592 0.242804 0.937049 0.000000 0.000000 0.000000 
1.487027 0.242764 0.937293 0.000000 0.000000 0.000000 
1.488977 0.242954 0.937184 0.000000 0.000000 0.000000 
1.490913 0.242864 0.937150 0.000000 0.000000 0.000000 
1.493068 0.243099 0.937276 0.000000 0.000000 0.000000 
1.495065 0.243295 0.937444 0.000000 0.000000 0.000000 
1.497068 0.243318 0.937840 0.000000 0.000000 0.000000 
1.499015 0.243222 0.937756 0.000000 0.000000 0.000000 
1.500908 0.243109 0.937821 0.000000 0.000000 0.000000 
1.441710 0.245272 0.937962 0.000000 0.000000 0.000000 
1.443004 0.245144 0.937925 0.000000 0.000000 0.000000 
1.445182 0.244882 0.937954 0.000000 0.000000 0.000000 
1.446988 0.244887 0.937637 0.000000 0.000000 0.000000 
1.448593 0.244810 0.937514 0.000000 0.000000 0.000000 
1.451671 0.244207 0.937934 0.000000 0.000000 0.000000 
1.452991 0.244431 0.937346 0.000000 0.000000 0.000000 
1.454912 0.244369 0.937120 0.000000 0.000000 0.000000 
1.457044 0.244982 0.937738 0.000000 0.000000 0.000000 
1.458775 0.245069 0.937380 0.000000 0.000000 0.000000 
1.461630 0.244742 0.937087 0.000000 0.000000 0.000000 
1.463024 0.244808 0.937192 0.000000 0.000000 0.000000 
1.464277 0.244996 0.937081 0.000000 0.000000 0.000000 
1.467865 0.244080 0.937011 0.000000 0.000000 0.000000 
1.469037 0.244874 0.937058 0.000000 0.000000 0.000000 
1.470050 0.244942 0.937034 0.000000 0.000000 0.000000 
1.475117 0.244951 0.937081 0.000000 0.000000 0.000000 
1.476135 0.245481 0.937110 0.000000 0.000000 0.000000 
1.479925 0.245603 0.937167 0.000000 0.000000 0.000000 
1.481079 0.245392 0.937587 0.000000 0.000000 0.000000 
1.482559 0.245398 0.937324 0.000000 0.000000 0.000000 
1.485672 0.245178 0.937035 0.000000 0.000000 0.000000 
1.487028 0.245167 0.937258 0.000000 0.000000 0.000000 
1.488977 0.245182 0.937225 0.000000 0.000000 0.000000 
1.490996 0.245018 0.937163 0.000000 0.000000 0.000000 
1.493022 0.244900 0.937256 0.000000 0.000000 0.000000 
1.494964 0.244760 0.937429 0.000000 0.000000 0.000000 
1.496963 0.244909 0.937833 0.000000 0.000000 0.000000 
1.499055 0.244943 0.937795 0.000000 0.000000 0.000000 
1.500925 0.244943 0.937820 0.000000 0.000000 0.000000 
1.502156 0.245911 0.937976 0.000000 0.000000 0.000000 
1.441758 0.246421 0.937951 0.000000 0.000000 0.000000 
1.443020 0.246955 0.937940 0.000000 0.000000 0.000000 
1.445090 0.246829 0.937961 0.000000 0.000000 0.000000 
1.446996 0.246869 0.937675 0.000000 0.000000 0.000000 
1.448698 0.246828 0.937558 0.000000 0.000000 0.000000 
1.450782 0.246504 0.937981 0.000000 0.000000 0.000000 
1.452935 0.246704 0.937479 0.000000 0.000000 0.000000 
1.455051 0.246751 0.937169 0.000000 0.000000 0.000000 
1.457108 0.247113 0.937693 0.000000 0.000000 0.000000 
1.458931 0.247120 0.937499 0.000000 0.000000 0.000000 
1.461165 0.247377 0.937036 0.000000 0.000000 0.000000 
1.463062 0.247275 0.937196 0.000000 0.000000 0.000000 
1.464483 0.247495 0.937133 0.000000 0.000000 0.000000 
1.469256 0.247356 0.937071 0.000000 0.000000 0.000000 
1.470230 0.247385 0.937051 0.000000 0.000000 0.000000 
1.475139 0.246944 0.937092 0.000000 0.000000 0.000000 
1.476306 0.246858 0.937061 0.000000 0.000000 0.000000 
1.479944 0.246637 0.937134 0.000000 0.000000 0.000000 
1.480961 0.246856 0.937581 0.000000 0.000000 0.000000 
1.482685 0.246945 0.937335 0.000000 0.000000 0.000000 
1.485518 0.247366 0.937014 0.000000 0.000000 0.000000 
1.487011 0.246892 0.937276 0.000000 0.000000 0.000000 
1.489020 0.247167 0.937286 0.000000 0.000000 0.000000 
1.491005 0.247157 0.937193 0.000000 0.000000 0.000000 
1.492979 0.246990 0.937280 0.000000 0.000000 0.000000 
1.495010 0.246944 0.937422 0.000000 0.000000 0.000000 
1.496974 0.246918 0.937813 0.000000 0.000000 0.000000 
1.499091 0.246830 0.937870 0.000000 0.000000 0.000000 
1.500912 0.247056 0.937829 0.000000 0.000000 0.000000 
1.443161 0.249457 0.937937 0.000000 0.000000 0.000000 
1.444586 0.249513 0.937977 0.000000 0.000000 0.000000 
1.447055 0.249341 0.937765 0.000000 0.000000 0.000000 
1.448969 0.249326 0.937569 0.000000 0.000000 0.000000 
1.450770 0.249041 0.937972 0.000000 0.000000 0.000000 
1.453128 0.249132 0.937507 0.000000 0.000000 0.000000 
1.454987 0.249134 0.937181 0.000000 0.000000 0.000000 
1.457033 0.248940 0.937633 0.000000 0.000000 0.000000 
1.458988 0.248875 0.937524 0.000000 0.000000 0.000000 
1.460724 0.248869 0.937035 0.000000 0.000000 0.000000 
1.463088 0.248773 0.937180 0.000000 0.000000 0.000000 
1.464516 0.248720 0.937138 0.000000 0.000000 0.000000 
1.466493 0.248207 0.937021 0.000000 0.000000 0.000000 
1.469315 0.248992 0.937082 0.000000 0.000000 0.000000 
1.470393 0.249043 0.937074 0.000000 0.000000 0.000000 
1.475253 0.249084 0.937091 0.000000 0.000000 0.000000 
1.476454 0.249069 0.937088 0.000000 0.000000 0.000000 
1.481116 0.248899 0.937541 0.000000 0.000000 0.000000 
1.482921 0.249032 0.937405 0.000000 0.000000 0.000000 
1.485631 0.249361 0.937026 0.000000 0.000000 0.000000 
1.487091 0.249043 0.937282 0.000000 0.000000 0.000000 
1.489004 0.249395 0.937375 0.000000 0.000000 0.000000 
1.491303 0.249685 0.937219 0.000000 0.000000 0.000000 
1.493008 0.249566 0.937275 0.000000 0.000000 0.000000 
1.495000 0.249243 0.937441 0.000000 0.000000 0.000000 
1.496950 0.248806 0.937785 0.000000 0.000000 0.000000 
1.499132 0.248497 0.937869 0.000000 0.000000 0.000000 
1.500862 0.248346 0.937819 0.000000 0.000000 0.000000 
1.502078 0.248126 0.937973 0.000000 0.000000 0.000000 
1.443077 0.250697 0.937931 0.000000 0.000000 0.000000 
1.444314 0.250646 0.937974 0.000000 0.000000 0.000000 
1.447214 0.250794 0.937752 0.000000 0.000000 0.000000 
1.448941 0.250885 0.937554 0.000000 0.000000 0.000000 
1.450310 0.250917 0.937890 0.000000 0.000000 0.000000 
1.453246 0.250916 0.937546 0.000000 0.000000 0.000000 
1.454991 0.250869 0.937208 0.000000 0.000000 0.000000 
1.456982 0.251015 0.937568 0.000000 0.000000 0.000000 
1.459036 0.250946 0.937621 0.000000 0.000000 0.000000 
1.460721 0.251031 0.937060 0.000000 0.000000 0.000000 
1.463171 0.250897 0.937186 0.000000 0.000000 0.000000 
1.464714 0.250861 0.937177 0.000000 0.000000 0.000000 
1.469442 0.250984 0.937080 0.000000 0.000000 0.000000 
1.470594 0.250942 0.937116 0.000000 0.000000 0.000000 
1.475548 0.251732 0.937107 0.000000 0.000000 0.000000 
1.476664 0.251622 0.937180 0.000000 0.000000 0.000000 
1.481243 0.250863 0.937563 0.000000 0.000000 0.000000 
1.482975 0.250735 0.937472 0.000000 0.000000 0.000000 
1.484932 0.250723 0.937020 0.000000 0.000000 0.000000 
1.487033 0.250420 0.937242 0.000000 0.000000 0.000000 
1.488962 0.250121 0.937378 0.000000 0.000000 0.000000 
1.490624 0.250060 0.937184 0.000000 0.000000 0.000000 
1.443369 0.252723 0.937957 0.000000 0.000000 0.000000 
1.444350 0.252917 0.937953 0.000000 0.000000 0.000000 
1.447366 0.252986 0.937812 0.000000 0.000000 0.000000 
1.448947 0.253008 0.937594 0.000000 0.000000 0.000000 
1.450206 0.253169 0.937710 0.000000 0.000000 0.000000 
1.453518 0.253174 0.937661 0.000000 0.000000 0.000000 
1.454987 0.253053 0.937269 0.000000 0.000000 0.000000 
1.457341 0.253535 0.937634 0.000000 0.000000 0.000000 
1.459038 0.253345 0.937781 0.000000 0.000000 0.000000 
1.460917 0.253566 0.937140 0.000000 0.000000 0.000000 
1.463041 0.253333 0.937135 0.000000 0.000000 0.000000 
1.464855 0.253074 0.937212 0.000000 0.000000 0.000000 
1.469502 0.252642 0.937085 0.000000 0.000000 0.000000 
1.470715 0.252477 0.937112 0.000000 0.000000 0.000000 
1.475121 0.252036 0.937057 0.000000 0.000000 0.000000 
1.443662 0.255004 0.937986 0.000000 0.000000 0.000000 
1.444453 0.255053 0.937952 0.000000 0.000000 0.000000 
1.447439 0.254787 0.937856 0.000000 0.000000 0.000000 
1.449004 0.254775 0.937597 0.000000 0.000000 0.000000 
1.450295 0.254533 0.937730 0.000000 0.000000 0.000000 
1.453569 0.254189 0.937706 0.000000 0.000000 0.000000 
1.454994 0.254336 0.937226 0.000000 0.000000 0.000000 
1.456471 0.254178 0.937215 0.000000 0.000000 0.000000 
1.507412 0.209976 0.938464 0.000000 0.000000 0.000000 
1.508991 0.209740 0.938535 0.000000 0.000000 0.000000 
1.510988 0.209369 0.938737 0.000000 0.000000 0.000000 
1.512549 0.209134 0.938835 0.000000 0.000000 0.000000 
1.499380 0.211543 0.938010 0.000000 0.000000 0.000000 
1.503375 0.210669 0.938288 0.000000 0.000000 0.000000 
1.504979 0.210281 0.938655 0.000000 0.000000 0.000000 
1.506908 0.210219 0.938464 0.000000 0.000000 0.000000 
1.508992 0.211046 0.938526 0.000000 0.000000 0.000000 
1.511020 0.210944 0.938765 0.000000 0.000000 0.000000 
1.512615 0.210978 0.938911 0.000000 0.000000 0.000000 
1.499606 0.213025 0.938029 0.000000 0.000000 0.000000 
1.500149 0.212699 0.938018 0.000000 0.000000 0.000000 
1.503551 0.213060 0.938266 0.000000 0.000000 0.000000 
1.505002 0.213002 0.938670 0.000000 0.000000 0.000000 
1.507007 0.213027 0.938565 0.000000 0.000000 0.000000 
1.508983 0.213051 0.938531 0.000000 0.000000 0.000000 
1.510984 0.212979 0.938754 0.000000 0.000000 0.000000 
1.512728 0.212920 0.938908 0.000000 0.000000 0.000000 
1.499770 0.214862 0.938014 0.000000 0.000000 0.000000 
1.500520 0.215228 0.938032 0.000000 0.000000 0.000000 
1.503646 0.215048 0.938212 0.000000 0.000000 0.000000 
1.505033 0.215026 0.938619 0.000000 0.000000 0.000000 
1.507007 0.215094 0.938621 0.000000 0.000000 0.000000 
1.509005 0.215091 0.938520 0.000000 0.000000 0.000000 
1.510988 0.214980 0.938754 0.000000 0.000000 0.000000 
1.512738 0.214916 0.938911 0.000000 0.000000 0.000000 
1.445978 0.217710 0.938098 0.000000 0.000000 0.000000 
1.447019 0.217551 0.938149 0.000000 0.000000 0.000000 
1.448139 0.217480 0.938052 0.000000 0.000000 0.000000 
1.499710 0.216837 0.938024 0.000000 0.000000 0.000000 
1.500543 0.217077 0.938037 0.000000 0.000000 0.000000 
1.503730 0.216963 0.938182 0.000000 0.000000 0.000000 
1.505035 0.216957 0.938598 0.000000 0.000000 0.000000 
1.506991 0.217055 0.938653 0.000000 0.000000 0.000000 
1.508994 0.217077 0.938533 0.000000 0.000000 0.000000 
1.510980 0.216983 0.938726 0.000000 0.000000 0.000000 
1.512807 0.216984 0.938926 0.000000 0.000000 0.000000 
1.514060 0.217780 0.938942 0.000000 0.000000 0.000000 
1.431780 0.218979 0.938861 0.000000 0.000000 0.000000 
1.433022 0.218928 0.938707 0.000000 0.000000 0.000000 
1.435032 0.218639 0.938798 0.000000 0.000000 0.000000 
1.437021 0.218588 0.938534 0.000000 0.000000 0.000000 
1.438997 0.218629 0.938124 0.000000 0.000000 0.000000 
1.441010 0.218368 0.938171 0.000000 0.000000 0.000000 
1.442335 0.218289 0.938123 0.000000 0.000000 0.000000 
1.445974 0.218638 0.938037 0.000000 0.000000 0.000000 
1.447034 0.219014 0.938133 0.000000 0.000000 0.000000 
1.448228 0.219288 0.938120 0.000000 0.000000 0.000000 
1.499745 0.218662 0.938022 0.000000 0.000000 0.000000 
1.500786 0.219036 0.938038 0.000000 0.000000 0.000000 
1.503681 0.219187 0.938077 0.000000 0.000000 0.000000 
1.505017 0.219011 0.938553 0.000000 0.000000 0.000000 
1.507039 0.219072 0.938732 0.000000 0.000000 0.000000 
1.509030 0.219082 0.938535 0.000000 0.000000 0.000000 
1.511003 0.218944 0.938743 0.000000 0.000000 0.000000 
1.512740 0.218989 0.938926 0.000000 0.000000 0.000000 
1.514218 0.219049 0.938927 0.000000 0.000000 0.000000 
1.431829 0.221117 0.938924 0.000000 0.000000 0.000000 
1.433015 0.221122 0.938721 0.000000 0.000000 0.000000 
1.435035 0.221088 0.938726 0.000000 0.000000 0.000000 
1.437011 0.221050 0.938573 0.000000 0.000000 0.000000 
1.438978 0.221085 0.938122 0.000000 0.000000 0.000000 
1.441088 0.220989 0.938150 0.000000 0.000000 0.000000 
1.442480 0.220921 0.938127 0.000000 0.000000 0.000000 
1.447165 0.220985 0.938100 0.000000 0.000000 0.000000 
1.448309 0.221100 0.938116 0.000000 0.000000 0.000000 
1.499745 0.220257 0.938008 0.000000 0.000000 0.000000 
1.500798 0.221003 0.938045 0.000000 0.000000 0.000000 
1.503637 0.220874 0.938028 0.000000 0.000000 0.000000 
1.504998 0.220878 0.938467 0.000000 0.000000 0.000000 
1.507042 0.221031 0.938773 0.000000 0.000000 0.000000 
1.509016 0.221067 0.938540 0.000000 0.000000 0.000000 
1.511018 0.220958 0.938743 0.000000 0.000000 0.000000 
1.512667 0.220989 0.938919 0.000000 0.000000 0.000000 
1.514548 0.221221 0.938852 0.000000 0.000000 0.000000 
1.431880 0.222943 0.938932 0.000000 0.000000 0.000000 
1.433005 0.223053 0.938730 0.000000 0.000000 0.000000 
1.435002 0.223086 0.938672 0.000000 0.000000 0.000000 
1.437027 0.223023 0.938625 0.000000 0.000000 0.000000 
1.438965 0.223054 0.938147 0.000000 0.000000 0.000000 
1.441061 0.223003 0.938114 0.000000 0.000000 0.000000 
1.442511 0.222959 0.938102 0.000000 0.000000 0.000000 
1.447292 0.223026 0.938064 0.000000 0.000000 0.000000 
1.448395 0.222990 0.938098 0.000000 0.000000 0.000000 
1.499751 0.222686 0.938015 0.000000 0.000000 0.000000 
1.500970 0.222996 0.938052 0.000000 0.000000 0.000000 
1.503447 0.223249 0.938048 0.000000 0.000000 0.000000 
1.505102 0.222987 0.938392 0.000000 0.000000 0.000000 
1.507012 0.223105 0.938797 0.000000 0.000000 0.000000 
1.509045 0.223134 0.938589 0.000000 0.000000 0.000000 
1.510994 0.223027 0.938735 0.000000 0.000000 0.000000 
1.512639 0.222971 0.938923 0.000000 0.000000 0.000000 
1.514782 0.222572 0.938882 0.000000 0.000000 0.000000 
1.431994 0.224684 0.938963 0.000000 0.000000 0.000000 
1.433029 0.225002 0.938744 0.000000 0.000000 0.000000 
1.434995 0.225039 0.938622 0.000000 0.000000 0.000000 
1.437018 0.224926 0.938665 0.000000 0.000000 0.000000 
1.438964 0.225010 0.938146 0.000000 0.000000 0.000000 
1.441092 0.224827 0.938083 0.000000 0.000000 0.000000 
1.442664 0.224951 0.938099 0.000000 0.000000 0.000000 
1.447365 0.225014 0.938045 0.000000 0.000000 0.000000 
1.448532 0.224985 0.938092 0.000000 0.000000 0.000000 
1.499946 0.224009 0.938051 0.000000 0.000000 0.000000 
1.501157 0.224885 0.938061 0.000000 0.000000 0.000000 
1.502655 0.225094 0.938033 0.000000 0.000000 0.000000 
1.505077 0.224967 0.938338 0.000000 0.000000 0.000000 
1.506991 0.225050 0.938793 0.000000 0.000000 0.000000 
1.509023 0.225082 0.938618 0.000000 0.000000 0.000000 
1.510990 0.225014 0.938729 0.000000 0.000000 0.000000 
1.512703 0.225020 0.938928 0.000000 0.000000 0.000000 
1.514966 0.224668 0.938890 0.000000 0.000000 0.000000 
1.433087 0.227083 0.938752 0.000000 0.000000 0.000000 
1.434969 0.227102 0.938584 0.000000 0.000000 0.000000 
1.437004 0.226996 0.938653 0.000000 0.000000 0.000000 
1.438923 0.227053 0.938175 0.000000 0.000000 0.000000 
1.441167 0.226941 0.938052 0.000000 0.000000 0.000000 
1.442725 0.226951 0.938100 0.000000 0.000000 0.000000 
1.447393 0.226989 0.938061 0.000000 0.000000 0.000000 
1.448695 0.226970 0.938089 0.000000 0.000000 0.000000 
1.501224 0.226995 0.938077 0.000000 0.000000 0.000000 
1.502796 0.227119 0.938051 0.000000 0.000000 0.000000 
1.505030 0.227008 0.938271 0.000000 0.000000 0.000000 
1.506953 0.226977 0.938825 0.000000 0.000000 0.000000 
1.509005 0.227008 0.938665 0.000000 0.000000 0.000000 
1.511001 0.226976 0.938741 0.000000 0.000000 0.000000 
1.512581 0.227022 0.938909 0.000000 0.000000 0.000000 
1.515272 0.226891 0.938922 0.000000 0.000000 0.000000 
1.433206 0.229016 0.938751 0.000000 0.000000 0.000000 
1.434976 0.229036 0.938577 0.000000 0.000000 0.000000 
1.437004 0.228913 0.938680 0.000000 0.000000 0.000000 
1.438964 0.228941 0.938215 0.000000 0.000000 0.000000 
1.441053 0.228838 0.938058 0.000000 0.000000 0.000000 
1.442906 0.228930 0.938108 0.000000 0.000000 0.000000 
1.447675 0.228942 0.938071 0.000000 0.000000 0.000000 
1.448801 0.228963 0.938083 0.000000 0.000000 0.000000 
1.501307 0.228966 0.938096 0.000000 0.000000 0.000000 
1.502741 0.229075 0.938079 0.000000 0.000000 0.000000 
1.505084 0.229035 0.938263 0.000000 0.000000 0.000000 
1.506989 0.228998 0.938811 0.000000 0.000000 0.000000 
1.509011 0.228988 0.938735 0.000000 0.000000 0.000000 
1.511001 0.228994 0.938720 0.000000 0.000000 0.000000 
1.512727 0.229001 0.938923 0.000000 0.000000 0.000000 
1.515543 0.228962 0.938949 0.000000 0.000000 0.000000 
1.433316 0.231134 0.938755 0.000000 0.000000 0.000000 
1.434977 0.231100 0.938549 0.000000 0.000000 0.000000 
1.437023 0.230977 0.938675 0.000000 0.000000 0.000000 
1.438941 0.231004 0.938282 0.000000 0.000000 0.000000 
1.440961 0.230888 0.938054 0.000000 0.000000 0.000000 
1.442974 0.230991 0.938088 0.000000 0.000000 0.000000 
1.447826 0.230940 0.938083 0.000000 0.000000 0.000000 
1.448964 0.231037 0.938080 0.000000 0.000000 0.000000 
1.501427 0.231025 0.938106 0.000000 0.000000 0.000000 
1.502898 0.231104 0.938103 0.000000 0.000000 0.000000 
1.505108 0.231087 0.938165 0.000000 0.000000 0.000000 
1.507232 0.231656 0.938843 0.000000 0.000000 0.000000 
1.509003 0.231518 0.938823 0.000000 0.000000 0.000000 
1.510986 0.231362 0.938728 0.000000 0.000000 0.000000 
1.512679 0.231066 0.938911 0.000000 0.000000 0.000000 
1.515630 0.230719 0.938972 0.000000 0.000000 0.000000 
1.433395 0.233081 0.938779 0.000000 0.000000 0.000000 
1.435002 0.233058 0.938533 0.000000 0.000000 0.000000 
1.437025 0.232959 0.938658 0.000000 0.000000 0.000000 
1.438976 0.232965 0.938335 0.000000 0.000000 0.000000 
1.440697 0.233009 0.938033 0.000000 0.000000 0.000000 
1.443068 0.232947 0.938074 0.000000 0.000000 0.000000 
1.444167 0.233004 0.938026 0.000000 0.000000 0.000000 
1.447912 0.232386 0.938044 0.000000 0.000000 0.000000 
1.449116 0.232998 0.938064 0.000000 0.000000 0.000000 
1.450058 0.233746 0.938072 0.000000 0.000000 0.000000 
1.501522 0.232997 0.938094 0.000000 0.000000 0.000000 
1.502906 0.232869 0.938114 0.000000 0.000000 0.000000 
1.505042 0.232607 0.938132 0.000000 0.000000 0.000000 
1.506515 0.232444 0.938582 0.000000 0.000000 0.000000 
1.509001 0.233060 0.938811 0.000000 0.000000 0.000000 
1.510999 0.232982 0.938727 0.000000 0.000000 0.000000 
1.512704 0.232939 0.938914 0.000000 0.000000 0.000000 
1.516047 0.233068 0.938894 0.000000 0.000000 0.000000 
1.433484 0.235012 0.938794 0.000000 0.000000 0.000000 
1.435035 0.235027 0.938548 0.000000 0.000000 0.000000 
1.437042 0.234947 0.938644 0.000000 0.000000 0.000000 
1.439013 0.234952 0.938393 0.000000 0.000000 0.000000 
1.440553 0.234938 0.938039 0.000000 0.000000 0.000000 
1.443139 0.234902 0.938058 0.000000 0.000000 0.000000 
1.444195 0.235223 0.938048 0.000000 0.000000 0.000000 
1.449123 0.234884 0.938078 0.000000 0.000000 0.000000 
1.450226 0.235192 0.938106 0.000000 0.000000 0.000000 
1.501589 0.234841 0.938097 0.000000 0.000000 0.000000 
1.502978 0.235051 0.938130 0.000000 0.000000 0.000000 
1.505032 0.235000 0.938142 0.000000 0.000000 0.000000 
1.506974 0.235009 0.938690 0.000000 0.000000 0.000000 
1.509098 0.235090 0.938858 0.000000 0.000000 0.000000 
1.511000 0.235050 0.938762 0.000000 0.000000 0.000000 
1.512837 0.235553 0.938939 0.000000 0.000000 0.000000 
1.516252 0.234851 0.938958 0.000000 0.000000 0.000000 
1.430363 0.237315 0.938998 0.000000 0.000000 0.000000 
1.433634 0.237020 0.938815 0.000000 0.000000 0.000000 
1.435030 0.237047 0.938553 0.000000 0.000000 0.000000 
1.437015 0.236976 0.938568 0.000000 0.000000 0.000000 
1.439007 0.236941 0.938452 0.000000 0.000000 0.000000 
1.440456 0.237070 0.938053 0.000000 0.000000 0.000000 
1.443353 0.237001 0.938048 0.000000 0.000000 0.000000 
1.444246 0.237045 0.938038 0.000000 0.000000 0.000000 
1.449272 0.236872 0.938078 0.000000 0.000000 0.000000 
1.450353 0.237050 0.938104 0.000000 0.000000 0.000000 
1.456690 0.236397 0.938023 0.000000 0.000000 0.000000 
1.501742 0.237651 0.938100 0.000000 0.000000 0.000000 
1.502988 0.237589 0.938193 0.000000 0.000000 0.000000 
1.505019 0.237426 0.938116 0.000000 0.000000 0.000000 
1.506989 0.236925 0.938607 0.000000 0.000000 0.000000 
1.509064 0.236516 0.938904 0.000000 0.000000 0.000000 
1.511000 0.236388 0.938781 0.000000 0.000000 0.000000 
1.512500 0.236171 0.938901 0.000000 0.000000 0.000000 
1.430358 0.238236 0.938997 0.000000 0.000000 0.000000 
1.433745 0.239071 0.938827 0.000000 0.000000 0.000000 
